# .PCD v0.7 - Point Cloud Data file format
VERSION 0.7
FIELDS x y z intensity ring
SIZE 4 4 4 4 2
TYPE F F F F U
COUNT 1 1 1 1 1
WIDTH 1316
HEIGHT 1
VIEWPOINT -0.708028 0.57058 0.910899 0.892369 -0.099043 -0.239119 -0.369716
POINTS 1316
DATA ascii
11.862255 2.1535981 -0.21044111 1 7
11.810021 2.0590594 -0.20925435 3 7
11.784662 1.9699658 -0.20855626 8 7
11.683602 1.869316 -0.20653178 6 7
11.429507 1.7469214 -0.20181963 4 7
9.2627659 1.3496418 -0.16338943 1 7
9.2519302 1.2838123 -0.16304037 1 7
9.2229986 1.2142311 -0.16237719 8 7
9.245141 1.1515431 -0.16262153 6 7
9.2469969 1.0862762 -0.1625168 4 7
9.2682686 1.0232296 -0.16276114 3 7
9.2831421 0.95931774 -0.16290076 3 7
9.3650942 0.90340787 -0.16422716 1 7
11.805088 1.0556549 -0.20688082 27 7
11.844058 0.97584707 -0.2074393 39 7
11.822665 0.8910265 -0.20695063 30 7
11.840427 0.81135732 -0.20716007 37 7
11.462585 0.7051028 -0.20045835 6 7
nan nan nan 0 7
10.069025 0.48013005 -0.17595516 4 7
10.070133 0.409742 -0.17592026 9 7
10.076746 0.33956394 -0.17599007 10 7
10.082869 0.26931348 -0.17605987 13 7
10.082502 0.1988758 -0.17602497 13 7
10.085623 0.13027227 -0.17605987 12 7
10.082288 0.059829641 -0.17599007 12 7
10.07246 -0.010547859 -0.17581554 13 7
10.068143 -0.080833957 -0.17574574 13 7
10.071331 -0.15118033 -0.17581554 12 7
10.076028 -0.22161916 -0.17592026 10 7
10.088279 -0.29060191 -0.1761646 13 7
10.088002 -0.36109528 -0.1761995 15 7
9.9234085 -0.42458937 -0.17337219 4 7
9.3989277 -0.4679063 -0.16426206 10 7
9.3714743 -0.53215086 -0.1638432 7 7
10.143834 -0.64708364 -0.17742117 3 7
10.131091 -0.71731961 -0.17728156 6 7
10.089951 -0.78523719 -0.17665327 1 7
10.072416 -0.85288632 -0.17644383 1 7
10.090113 -0.92537522 -0.17686269 1 7
6.4577103 -0.63659787 -0.11326612 2 7
6.4531083 -0.6816653 -0.11326612 2 7
6.416398 -0.72311646 -0.11270764 2 7
nan nan nan 0 7
10.202888 -1.2925428 -0.17951545 1 7
nan nan nan 0 7
nan nan nan 0 7
6.4190683 -0.95017529 -0.11326612 2 7
6.4124522 -0.99384606 -0.11326612 2 7
6.4053578 -1.0385889 -0.11326612 2 7
nan nan nan 0 7
nan nan nan 0 7
nan nan nan 0 7
nan nan nan 0 7
nan nan nan 0 7
nan nan nan 0 7
nan nan nan 0 7
nan nan nan 0 7
nan nan nan 0 7
9.6548805 -2.2627537 -0.17309296 1 7
9.6174679 -2.3249338 -0.17270902 6 7
9.5913 -2.3896017 -0.1725345 30 7
9.5956917 -2.4619696 -0.17291845 3 7
9.6343403 -2.5437036 -0.17393069 1 7
9.6322412 -2.6134117 -0.17420992 3 7
9.1090918 -2.5398769 -0.16506486 1 7
9.0719147 -2.5979028 -0.16471581 1 7
9.678998 -2.8450129 -0.17609477 4 7
nan nan nan 0 7
nan nan nan 0 7
nan nan nan 0 7
nan nan nan 0 7
nan nan nan 0 7
nan nan nan 0 7
nan nan nan 0 7
8.3945389 -2.9825585 -0.15550095 3 7
nan nan nan 0 7
6.0836115 -2.2576413 -0.11326612 2 7
nan nan nan 0 7
nan nan nan 0 7
nan nan nan 0 7
nan nan nan 0 7
nan nan nan 0 7
nan nan nan 0 7
6.2717295 -2.6815906 -0.11906032 2 7
6.2418566 -2.7205157 -0.11885089 2 7
6.2487812 -2.7742994 -0.11933956 2 7
6.2219734 -2.8145599 -0.11919994 2 7
6.3256712 -2.9148357 -0.12157347 2 7
6.4391274 -3.0217915 -0.12415642 2 7
6.1369166 -2.9311044 -0.11871127 5 7
6.0335789 -2.9336534 -0.11710566 5 7
6.0703025 -3.0040863 -0.1182226 2 7
6.0063186 -3.0248048 -0.11738489 2 7
5.9108372 -3.0273321 -0.11591888 2 7
5.8186207 -3.0315642 -0.11452269 2 7
5.8503232 -3.1002016 -0.11556984 2 7
nan nan nan 0 7
nan nan nan 0 7
nan nan nan 0 7
nan nan nan 0 7
nan nan nan 0 7
nan nan nan 0 7
nan nan nan 0 7
nan nan nan 0 7
nan nan nan 0 7
nan nan nan 0 7
nan nan nan 0 7
nan nan nan 0 7
nan nan nan 0 7
nan nan nan 0 7
nan nan nan 0 7
nan nan nan 0 7
nan nan nan 0 7
4.4391489 -3.1187289 -0.094696753 4 7
4.3488846 -3.1008837 -0.093230762 4 7
4.2839298 -3.0987699 -0.092288323 19 7
4.2380123 -3.1108522 -0.091764756 5 7
4.2071157 -3.1324618 -0.091555327 5 7
4.1819534 -3.1593456 -0.091485515 5 7
4.1407504 -3.173866 -0.091066658 5 7
4.0963912 -3.1855099 -0.09057799 10 7
4.0426531 -3.1892598 -0.089879893 10 7
3.9921873 -3.1949141 -0.089251608 10 7
3.9728899 -3.2252274 -0.089321412 5 7
3.8792679 -3.1944113 -0.08771579 5 7
3.8359444 -3.2028 -0.087227128 11 7
3.7768674 -3.1984859 -0.086389415 11 7
3.7514117 -3.2221692 -0.086319603 11 7
3.7016854 -3.2246375 -0.085691318 11 7
3.6461134 -3.2212737 -0.084923409 6 7
3.6026857 -3.2279677 -0.084434748 6 7
3.5628676 -3.2362812 -0.084015884 12 7
3.5107718 -3.2339785 -0.083317786 12 7
3.4793408 -3.2502191 -0.083108358 12 7
3.4391451 -3.2579277 -0.082689509 12 7
3.3961272 -3.2624629 -0.082200833 12 7
3.3618097 -3.2749298 -0.0819216 6 7
3.2768347 -3.235913 -0.080385789 6 7
3.248512 -3.2530503 -0.080246165 13 7
3.2116911 -3.2614019 -0.079897113 13 7
3.1581957 -3.2521837 -0.079129212 13 7
3.1221528 -3.2591648 -0.078780167 20 7
3.0773525 -3.2576239 -0.078221686 14 7
3.0354526 -3.2585433 -0.077733018 7 7
nan nan nan 0 7
2.9547565 -3.2620728 -0.0768255 14 7
2.9239185 -3.2736731 -0.076616064 21 7
2.885705 -3.2754939 -0.076197207 14 7
2.8522763 -3.283483 -0.075917974 14 7
2.8266826 -3.3002777 -0.075848162 21 7
2.7906713 -3.3046527 -0.07549911 22 7
2.7348392 -3.2836211 -0.074591585 7 7
nan nan nan 0 7
2.65853 -3.2841828 -0.073753871 22 7
2.6330428 -3.2995369 -0.073684059 22 7
2.5901623 -3.292691 -0.073125578 23 7
2.553633 -3.2933106 -0.072741628 23 7
2.5160077 -3.2919922 -0.072322771 23 7
2.4821358 -3.2951016 -0.072008632 31 7
2.4554954 -3.3075333 -0.071903922 23 7
2.4146338 -3.3003867 -0.07138034 8 7
nan nan nan 0 7
2.3503649 -3.3072848 -0.070821866 24 7
2.3306599 -3.328527 -0.070926577 24 7
2.3005524 -3.3348405 -0.070717148 24 7
2.2553146 -3.3173485 -0.070019051 24 7
2.2231984 -3.3197207 -0.069739819 24 7
2.1977661 -3.3318217 -0.069670007 24 7
2.1668265 -3.3353453 -0.069425672 24 7
2.1391778 -3.3436537 -0.069286056 16 7
nan nan nan 0 7
2.077528 -3.3494043 -0.068797387 15 7
2.031167 -3.3262799 -0.068029478 30 7
2.0064178 -3.3366013 -0.067959674 29 7
1.9840938 -3.352248 -0.067994572 29 7
1.9505774 -3.3487384 -0.067645527 29 7
1.9072638 -3.3275759 -0.06694743 28 7
1.8855519 -3.3422227 -0.066982336 28 7
1.856351 -3.3448141 -0.066772908 27 7
1.8201222 -3.3328016 -0.066284239 20 7
1.8422278 -3.4299881 -0.067959674 7 7
1.7678083 -3.3472805 -0.066074811 6 7
1.7397896 -3.3506665 -0.065900289 26 7
1.7127187 -3.3556066 -0.065760665 26 7
1.6910442 -3.3710563 -0.065830477 32 7
1.6612797 -3.3702247 -0.065586142 25 7
1.627252 -3.3601432 -0.065167286 25 7
1.596023 -3.3551693 -0.064853139 24 7
1.572561 -3.3662295 -0.064853139 24 7
1.5456873 -3.3698561 -0.064713523 24 7
1.5155556 -3.3659775 -0.064434282 24 7
1.4934179 -3.3780444 -0.064469188 6 7
1.4554746 -3.3553665 -0.063840903 5 7
1.4359292 -3.3746459 -0.064015426 34 7
1.4131051 -3.3864336 -0.064050332 34 7
1.3818572 -3.3777087 -0.063701279 33 7
1.3508002 -3.3687127 -0.063352235 38 7
1.3249128 -3.3703849 -0.063212618 33 7
1.3006326 -3.3776863 -0.063177712 32 7
1.2763146 -3.3848133 -0.063142806 32 7
1.2505761 -3.3880129 -0.063038096 37 7
1.2091345 -3.3456693 -0.062095661 25 7
1.187081 -3.3578 -0.062165473 5 7
1.1819042 -3.4189241 -0.063142806 5 7
1.1394429 -3.3721523 -0.062130567 20 7
1.1221083 -3.396919 -0.062444709 30 7
1.0916129 -3.3837357 -0.062060758 30 7
1.0673628 -3.3893666 -0.062025853 30 7
1.0430872 -3.3948243 -0.06199095 34 7
1.01764 -3.396277 -0.061886236 34 7
0.99110174 -3.3937008 -0.06171171 34 7
0.96410251 -3.3889971 -0.061502282 33 7
0.93721741 -3.3840823 -0.061292849 37 7
0.91259927 -3.3845911 -0.061188139 32 7
0.88438421 -3.3734708 -0.060873993 18 7
0.86229253 -3.385376 -0.060978711 4 7
0.83719695 -3.3854897 -0.060873993 18 7
0.81167591 -3.3834739 -0.060734376 30 7
0.78939408 -3.3949008 -0.060839087 45 7
0.76743108 -3.4081328 -0.060978711 40 7
0.7414909 -3.4036381 -0.060804185 58 7
0.71317893 -3.387207 -0.06042023 72 7
0.68712515 -3.3803451 -0.060210802 55 7
0.66640943 -3.396718 -0.06042023 59 7
0.64268047 -3.4012876 -0.06042023 80 7
0.61772418 -3.3957462 -0.060245708 80 7
0.58746356 -3.3625488 -0.059582517 38 7
nan nan nan 0 7
0.54077441 -3.3723977 -0.059617419 36 7
0.51811022 -3.3779771 -0.059652328 64 7
0.49596161 -3.3914049 -0.059826851 100 7
0.47172204 -3.3908236 -0.059757043 100 7
0.4488236 -3.3999815 -0.059861753 71 7
0.42408529 -3.3950949 -0.059722137 62 7
0.40154275 -3.4079027 -0.059896659 57 7
0.3768608 -3.402673 -0.059757043 66 7
0.35330272 -3.4072099 -0.059791945 102 7
0.32682678 -3.3756993 -0.059198562 60 7
0.30504045 -3.3978157 -0.059547611 85 7
0.28124455 -3.3918417 -0.05940799 78 7
nan nan nan 0 7
nan nan nan 0 7
0.21014933 -3.3969877 -0.05940799 101 7
0.18653829 -3.4003687 -0.059442896 125 7
0.16375105 -3.4215622 -0.059791945 125 7
0.13920729 -3.4066377 -0.059512705 133 7
0.11467644 -3.3855426 -0.059128754 81 7
0.091736734 -3.4122474 -0.059582517 125 7
0.067634024 -3.3988094 -0.059338182 92 7
0.04457638 -3.4051898 -0.059442896 126 7
0.020778159 -3.4014187 -0.059373088 78 7
-0.0029539585 -3.3854833 -0.059093848 100 7
-0.026698951 -3.3993776 -0.059338182 100 7
nan nan nan 0 7
-0.074777566 -3.4546645 -0.060315516 100 7
-0.098291039 -3.4540753 -0.060315516 95 7
-0.12176472 -3.4353194 -0.060001373 100 7
-0.14557524 -3.4303899 -0.059931565 100 7
-0.17050722 -3.4492626 -0.060280614 100 7
-0.19345675 -3.4280231 -0.059931565 100 7
-0.21751031 -3.4285841 -0.059966467 100 7
-0.24186267 -3.4329665 -0.060071182 100 7
-0.26566893 -3.4292006 -0.060036276 100 7
-0.28950834 -3.4332907 -0.060140993 70 7
-0.3152895 -3.4510999 -0.060490038 87 7
-0.33818629 -3.4429038 -0.060385328 21 7
-0.36074802 -3.4265378 -0.060140993 12 7
-0.38689345 -3.4438076 -0.060490038 65 7
-0.41187441 -3.4489653 -0.060629662 48 7
-0.43870342 -3.4678283 -0.061013613 58 7
-0.46396199 -3.4726098 -0.061153233 60 7
-0.48735771 -3.4633455 -0.061048519 54 7
-0.51240152 -3.4657934 -0.061153233 60 7
-0.53812212 -3.4760582 -0.061397567 52 7
-0.564614 -3.4860346 -0.061641898 47 7
-0.58860391 -3.4800363 -0.061606996 42 7
-0.61219037 -3.4719036 -0.061537188 38 7
-0.63472635 -3.4617553 -0.061432473 19 7
-0.66224772 -3.4749188 -0.061746612 4 7
-0.68959522 -3.4859042 -0.062025853 20 7
-0.71793175 -3.5005941 -0.062374901 41 7
-0.73966753 -3.4858456 -0.062200375 40 7
-0.76570022 -3.4884098 -0.062339999 41 7
-0.79180419 -3.4907799 -0.062479615 35 7
-0.82071465 -3.504637 -0.06282866 42 7
-0.84703934 -3.5065973 -0.062968284 37 7
-0.87343132 -3.5083604 -0.0631079 37 7
-0.90423983 -3.5294538 -0.063596569 39 7
-0.91968167 -3.4882498 -0.062968284 21 7
-0.94767439 -3.4952543 -0.063212618 11 7
-0.99137568 -3.5579004 -0.064469188 6 7
-1.0056731 -3.516463 -0.063840903 23 7
-1.0330143 -3.51895 -0.064015426 34 7
-1.0638986 -3.5327148 -0.064399377 29 7
-1.0908958 -3.5328441 -0.064539 30 7
-1.1197557 -3.5384877 -0.064783335 24 7
-1.1425821 -3.5248773 -0.064678617 24 7
-1.1740911 -3.5376918 -0.065062575 25 7
-1.2039043 -3.5445571 -0.065341808 25 7
-1.2292769 -3.5379546 -0.065376714 19 7
-1.0999649 -3.0958984 -0.057348609 3 7
-1.0901508 -3.0016832 -0.055742987 7 7
-1.1138625 -3.0014985 -0.055882607 14 7
-1.3368908 -3.5286629 -0.065865383 13 7
-1.3759223 -3.5565438 -0.06656348 20 7
-1.4067074 -3.5638361 -0.066877626 21 7
-1.4315529 -3.5539289 -0.066877626 28 7
-1.4608892 -3.5549459 -0.067087047 28 7
-1.4934015 -3.5631027 -0.067436099 29 7
-1.5237412 -3.5654619 -0.067680433 29 7
-1.5438039 -3.5437374 -0.067471005 14 7
nan nan nan 0 7
-1.6178564 -3.5764959 -0.068518147 15 7
-1.6463457 -3.5744824 -0.068692669 31 7
-1.6789032 -3.5791953 -0.069006816 31 7
-1.7098826 -3.5800183 -0.06925115 24 7
-1.742704 -3.5841796 -0.069565296 24 7
-1.5826399 -3.1994174 -0.062305093 5 7
-1.1661646 -2.3166456 -0.045271542 1 7
-1.1609474 -2.267714 -0.044468731 14 7
-1.1776739 -2.261328 -0.044503637 16 7
-1.2818409 -2.4189348 -0.04778469 2 7
-1.4741966 -2.7355926 -0.054242078 8 7
-1.4812558 -2.7044485 -0.053823221 9 7
-1.4757797 -2.6503637 -0.052950602 6 7
-1.2775459 -2.2571363 -0.045271542 6 7
-1.2743272 -2.2152286 -0.044608355 27 7
-1.2685682 -2.1700246 -0.043875352 34 7
-1.2693895 -2.1370456 -0.043386683 27 7
-1.2797744 -2.1215069 -0.043247063 34 7
-1.2799264 -2.0886505 -0.042758394 36 7
-1.2772112 -2.0527241 -0.042199921 34 7
-1.2840328 -2.031924 -0.041955583 37 7
-1.2830663 -1.9993494 -0.041466918 10 7
-1.2915345 -1.9819665 -0.041292395 17 7
-1.2887886 -1.9478859 -0.040768825 27 7
-1.2834004 -1.9106214 -0.040175438 25 7
-1.2862391 -1.8869703 -0.039861299 30 7
-1.2993809 -1.8779449 -0.039861299 35 7
-1.2948987 -1.844507 -0.039337724 29 7
-1.3077439 -1.8354223 -0.039337724 44 7
-1.2877177 -1.7808752 -0.038360391 43 7
-1.2977532 -1.7686174 -0.038290579 43 7
-1.297822 -1.7437012 -0.03794153 43 7
-1.300323 -1.7218323 -0.03766229 43 7
-1.3028784 -1.6997869 -0.037383057 43 7
-1.3024379 -1.6748641 -0.037034009 43 7
-1.3051403 -1.6549684 -0.036789671 42 7
-1.3054194 -1.6317631 -0.036475532 44 7
-1.310479 -1.6148459 -0.036301006 42 7
-1.3166369 -1.5994825 -0.036161385 46 7
-1.3085469 -1.5672268 -0.035637815 44 7
-1.306533 -1.542793 -0.035288766 44 7
-1.3198779 -1.5366681 -0.035358574 50 7
-1.3279462 -1.5244007 -0.035288766 50 7
-1.3210832 -1.4958415 -0.034835003 46 7
-1.3194861 -1.4731764 -0.034520861 44 7
-1.3270501 -1.460968 -0.034451049 48 7
-1.3290879 -1.4428436 -0.034241624 44 7
-1.3323035 -1.4262228 -0.034067098 42 7
-1.3326008 -1.4067249 -0.033822764 41 7
-1.3282945 -1.3831984 -0.033473715 43 7
-1.332338 -1.3681612 -0.033334095 43 7
-1.3348316 -1.3517121 -0.033159573 46 7
-1.3414059 -1.3395344 -0.033089764 46 7
-1.3433695 -1.323356 -0.032915238 50 7
-1.3425356 -1.3041915 -0.032670904 53 7
-1.3427188 -1.2867218 -0.032461476 53 7
-1.3473089 -1.2731961 -0.032356761 48 7
-1.3022985 -2.8327031 -0.16339287 4 6
-1.2936121 -2.7640774 -0.15993871 3 6
-1.2999886 -2.7279344 -0.15836863 2 6
-1.3094119 -2.6990256 -0.15721723 2 6
-1.3105367 -2.654002 -0.1551238 2 6
-1.3146846 -2.6162343 -0.15344904 2 6
-1.3147324 -2.5714266 -0.15135561 2 6
-1.3193067 -2.5376089 -0.14989018 2 6
-1.3201848 -2.4965558 -0.1480061 2 6
-1.2259591 -2.279712 -0.13565481 1 6
-1.2322625 -2.2535737 -0.13460809 30 6
-1.2547582 -2.2571356 -0.13534079 5 6
-1.3127362 -2.3230913 -0.13984169 4 6
-1.3404515 -2.334887 -0.14109775 3 6
-1.3687968 -2.3461735 -0.1423538 2 6
-1.3769945 -2.3228164 -0.14151645 3 6
-1.3210452 -2.1933827 -0.13418941 30 6
-1.3380287 -2.1877477 -0.13439874 37 6
-1.3279747 -2.1376364 -0.13188663 26 6
-1.3361011 -2.118412 -0.13125859 29 6
-1.3314675 -2.0787594 -0.1293745 31 6
-1.3346996 -2.0529034 -0.12832777 17 6
-1.3467985 -2.0402019 -0.12811844 24 6
-1.3417566 -2.002779 -0.126339 15 6
-1.3481889 -1.9815675 -0.12560631 34 6
-1.3404253 -1.9408823 -0.12361754 32 6
-1.3459172 -1.9200286 -0.12288483 31 6
-1.3465528 -1.8926842 -0.12173345 27 6
-1.352718 -1.8735219 -0.12110542 32 6
-1.3536378 -1.8481578 -0.1200587 28 6
-1.3450626 -1.8098081 -0.11817461 33 6
-1.349247 -1.7892113 -0.1174419 37 6
-1.3532091 -1.7686446 -0.11670919 41 6
-1.3566458 -1.7483472 -0.11597649 43 6
-1.3539933 -1.7200017 -0.11472043 36 6
-1.3525541 -1.6931034 -0.11356904 43 6
-1.3567969 -1.6743088 -0.112941 42 6
-1.3633794 -1.6586246 -0.11252232 43 6
-1.3646934 -1.6367939 -0.11168494 43 6
-1.3603299 -1.6091639 -0.11042888 43 6
-1.3559308 -1.5814327 -0.10917282 43 6
-1.3564533 -1.5598712 -0.10833544 42 6
-1.3567415 -1.5383799 -0.10749806 37 6
-1.3605255 -1.5216647 -0.10697471 40 6
-1.361724 -1.5017726 -0.10624201 35 6
-1.3586559 -1.4775276 -0.10519528 33 6
-1.3648517 -1.4636244 -0.10488127 39 6
-1.3722914 -1.4511582 -0.10467192 43 6
-1.3710803 -1.4302495 -0.10383455 45 6
-1.3754636 -1.4149139 -0.10341586 43 6
-1.3642757 -1.383942 -0.10184578 41 6
-1.3666055 -1.3675598 -0.10132242 43 6
-1.3704327 -1.3523744 -0.10090373 45 6
-1.3784093 -1.3413812 -0.10079906 47 6
-1.3819761 -1.3261938 -0.10038038 47 6
-1.3810462 -1.306904 -0.099647671 48 6
-1.3872157 -1.2945056 -0.099438325 50 6
-1.3903404 -1.2793798 -0.099019639 50 6
-1.3962801 -1.2669581 -0.0988103 56 6
-1.3914778 -1.2454363 -0.097868249 54 6
-1.3896559 -1.2264407 -0.097135544 58 6
-1.3891445 -1.2088423 -0.096507512 56 6
-1.4005814 -1.2017162 -0.096716851 58 6
-1.3997878 -1.1841693 -0.096088827 62 6
-1.4049531 -1.1718097 -0.09587948 62 6
-1.3959295 -1.1482627 -0.09472809 54 6
-1.4054632 -1.1397473 -0.094832763 58 6
-1.4069492 -1.125165 -0.094414078 58 6
-1.4084964 -1.1103688 -0.093995392 58 6
-1.406751 -1.0931559 -0.093367353 56 6
-1.409592 -1.0796646 -0.093053341 52 6
-1.4170949 -1.0697978 -0.093053341 50 6
-1.4211395 -1.0577421 -0.092843994 50 6
-1.4220471 -1.0430701 -0.092425302 54 6
-1.4260572 -1.030777 -0.092215963 54 6
-1.4185773 -1.0103679 -0.091273919 58 6
-1.419057 -0.99585062 -0.090855226 62 6
-1.4192322 -0.98162377 -0.090436541 36 6
-1.431002 -0.97506601 -0.09075056 37 6
-1.4327992 -0.96171296 -0.090436541 37 6
-1.4311481 -0.94617897 -0.089913182 37 6
-1.4276764 -0.92962593 -0.08928515 37 6
-1.4408569 -0.92394841 -0.089703836 37 6
-1.4403582 -0.90985316 -0.08928515 37 6
-1.4331071 -0.89133662 -0.088447772 35 6
-1.4326347 -0.87688804 -0.088029087 34 6
-1.4301678 -0.86171162 -0.087505728 31 6
-1.4377179 -0.85297579 -0.087610394 31 6
-1.4367387 -0.83888966 -0.087191716 36 6
-1.4424156 -0.82909065 -0.087191716 38 6
-1.4342604 -0.81113529 -0.086354338 38 6
-1.4433788 -0.8030445 -0.086563677 42 6
-1.4454459 -0.79103059 -0.086354338 41 6
-1.449038 -0.78022689 -0.086249664 45 6
-1.4491544 -0.76728797 -0.085935652 46 6
-1.4454863 -0.75279373 -0.085412286 48 6
-1.4435954 -0.739043 -0.084993601 50 6
-1.4558562 -0.73253804 -0.085412286 56 6
-1.4591446 -0.72147083 -0.08530762 46 6
-1.4516932 -0.70490444 -0.084574915 45 6
-1.4583815 -0.69561237 -0.084679581 19 6
-1.8284012 -0.85687476 -0.10582332 53 6
-1.8615544 -0.85661334 -0.10739339 35 6
-1.8418618 -0.83240682 -0.10592799 39 6
-1.8403252 -0.81628859 -0.1055093 39 6
-1.8276657 -0.79545075 -0.10446258 45 6
-1.8295007 -0.78110337 -0.10425323 39 6
-1.8330669 -0.76754063 -0.10414857 38 6
-1.8309903 -0.75169069 -0.10372987 37 6
-1.8360643 -0.73921049 -0.10372987 38 6
-1.8244593 -0.71977717 -0.10278783 37 6
-1.809069 -0.69878745 -0.10163644 31 6
-1.7877501 -0.67624784 -0.10017103 37 6
-1.7923119 -0.66406327 -0.10017103 35 6
-1.8250688 -0.66174704 -0.10174111 13 6
-2.2831492 -0.81029999 -0.12696704 53 6
-2.269882 -0.78779233 -0.12592033 38 6
-2.2148023 -0.7513929 -0.12257081 35 6
-2.2199941 -0.73591238 -0.12257081 33 6
-2.2535796 -0.72962451 -0.1241409 17 6
-3.5534143 -1.1237975 -0.1953178 13 6
-3.5707154 -1.1019082 -0.19584116 13 6
-3.568759 -1.0740743 -0.1953178 15 6
-3.5723374 -1.0480099 -0.19510846 18 6
-3.5699646 -1.0203005 -0.1945851 18 6
-3.5710547 -0.99436945 -0.19427109 18 6
-3.5682707 -0.96680385 -0.19374773 21 6
-3.5730021 -0.94136029 -0.19364306 20 6
-3.5698125 -0.91391629 -0.19311969 20 6
-3.5701363 -0.88814962 -0.19280569 20 6
-3.5646002 -0.86039281 -0.19217765 20 6
-3.5646863 -0.83412027 -0.19186363 17 6
-3.5626311 -0.80744874 -0.19144495 20 6
-3.562192 -0.78189528 -0.19113094 17 6
-3.5695179 -0.75742292 -0.1912356 20 6
-3.5611494 -0.72905648 -0.1905029 19 6
-3.5563552 -0.70224267 -0.18997954 19 6
-3.561053 -0.67801905 -0.18997954 19 6
-3.5558767 -0.65134323 -0.18945618 21 6
-3.5603371 -0.62650263 -0.18945618 23 6
-3.5409913 -0.59764284 -0.18820012 15 6
-3.521318 -0.56969845 -0.18694405 13 6
-3.5331044 -0.54632276 -0.18736275 13 6
-3.5406928 -0.52284449 -0.18757208 13 6
-3.5363455 -0.49700123 -0.1871534 11 6
-3.5278506 -0.47071582 -0.18652536 15 6
-3.5290699 -0.44582507 -0.18642069 13 6
-3.526073 -0.42108256 -0.18610668 13 6
-3.5289266 -0.39645651 -0.18610668 15 6
-3.5217419 -0.37015009 -0.18558332 14 6
-3.5202644 -0.3451657 -0.18537398 12 6
-3.5185544 -0.32083327 -0.18516463 12 6
-3.5107572 -0.29542309 -0.18464127 17 6
-3.5047688 -0.27029273 -0.18422259 17 6
-3.5225093 -0.24693643 -0.18505996 14 6
-3.5061691 -0.22181877 -0.18411791 14 6
-3.5056381 -0.19722351 -0.18401325 14 6
-3.5149088 -0.17313777 -0.18443193 14 6
-3.5180275 -0.14867921 -0.18453661 14 6
-3.5149875 -0.12397514 -0.18432724 14 6
-3.5037889 -0.099094108 -0.18369922 14 6
-3.5023983 -0.074588105 -0.18359455 14 6
-3.516813 -0.050335862 -0.18432724 14 6
-3.5070882 -0.02632151 -0.18380389 14 6
-3.5071864 -0.0018359413 -0.18380389 14 6
-3.4931333 0.022557762 -0.1830712 14 6
-3.4988821 0.047023568 -0.18338521 17 6
-3.4944746 0.071368493 -0.18317586 16 6
-3.5038741 0.096035562 -0.18369922 14 6
-3.4971507 0.11967857 -0.18338521 14 6
-3.4842565 0.1435969 -0.18275717 14 6
-3.4792085 0.16711855 -0.18254784 16 6
-3.4879284 0.19195186 -0.1830712 14 6
-3.486541 0.21568905 -0.1830712 14 6
-3.4909277 0.24043612 -0.18338521 17 6
-3.4751778 0.26434922 -0.1826525 16 6
-3.4772282 0.28893569 -0.18286185 16 6
-3.4731915 0.31241801 -0.18275717 16 6
-3.4828532 0.33781475 -0.18338521 14 6
-3.4704776 0.36108798 -0.18286185 16 6
-3.4658871 0.38508627 -0.18275717 16 6
-3.4671524 0.40913707 -0.18296652 16 6
-3.4622302 0.43308368 -0.18286185 16 6
-3.4670422 0.4582918 -0.18328053 17 6
-3.4657364 0.48275989 -0.18338521 14 6
-3.4583292 0.50636566 -0.18317586 14 6
-3.4586582 0.53110248 -0.18338521 14 6
-3.4607823 0.55618542 -0.18369922 14 6
-3.4666631 0.58198684 -0.18422259 12 6
-3.4644833 0.60651809 -0.18432724 14 6
-3.4464102 0.62818301 -0.18359455 12 6
-3.4419408 0.65222818 -0.18359455 12 6
-3.4471021 0.67816842 -0.18411791 14 6
-3.4619763 0.70560515 -0.18516463 12 6
-3.439378 0.72604442 -0.18422259 12 6
-3.4381282 0.7508896 -0.18443193 14 6
-3.438647 0.77619416 -0.18474595 12 6
-3.4352288 0.8000353 -0.1848506 10 6
-3.4276185 0.82353085 -0.18474595 12 6
-3.4390845 0.85236144 -0.18568799 10 6
-3.4156339 0.8719033 -0.18474595 12 6
-3.417347 0.89716125 -0.18516463 10 6
-3.4167848 0.92255878 -0.18547864 10 6
-3.4277477 0.95059854 -0.18642069 11 6
-3.4210281 0.97450483 -0.18642069 11 6
-3.4160578 0.99892557 -0.18652536 11 6
-3.4147403 1.0244708 -0.18683939 11 6
-3.4172332 1.0506253 -0.18736275 11 6
-3.4079106 1.0738553 -0.18725806 9 6
-3.4117343 1.101303 -0.1878861 9 6
-3.4058592 1.1257205 -0.18799078 11 6
-3.4035933 1.1513906 -0.1883048 9 6
-3.3879223 1.1725111 -0.1878861 9 6
-3.3984823 1.2027977 -0.18893282 9 6
-3.3975151 1.2292122 -0.18935151 9 6
-3.3832307 1.2508235 -0.1890375 9 6
-3.3802443 1.2759387 -0.18935151 9 6
-3.3861625 1.3052539 -0.19018888 9 6
-3.3899779 1.3339806 -0.19092159 9 6
-3.3861427 1.3598467 -0.1912356 10 6
-3.3747182 1.3826967 -0.19113094 10 6
-3.3633852 1.404866 -0.19102626 9 6
-3.364521 1.4330077 -0.19165429 10 6
-3.3724995 1.4650046 -0.19270101 10 6
-3.3731477 1.4933639 -0.19332905 10 6
-3.3483386 1.5097221 -0.19249167 10 6
-3.3594968 1.5430647 -0.19374773 10 6
-3.3631148 1.5732511 -0.1945851 10 6
-3.3664749 1.6035628 -0.19542249 10 6
-3.359076 1.6281829 -0.19563182 10 6
-3.3530014 1.6542443 -0.19594584 10 6
-3.3485107 1.6811962 -0.19636452 11 6
-3.3544781 1.713619 -0.19741124 8 6
-3.3498259 1.7400954 -0.19782993 8 6
-3.348192 1.7690367 -0.19845797 8 6
-3.3354475 1.7929504 -0.19845797 8 6
-3.3263545 1.8181075 -0.19866732 8 6
-3.3365998 1.8533149 -0.20002805 8 6
-3.3305366 1.8804914 -0.20044672 8 6
-3.3176594 1.903118 -0.20044672 8 6
-3.3160331 1.9338531 -0.20117943 8 6
-3.3165402 1.9645231 -0.20201682 9 6
-3.3147235 1.994837 -0.20274951 9 6
-3.3058281 2.0210557 -0.20306353 9 6
-3.3086054 2.0546215 -0.20411025 9 6
-3.3080595 2.0856161 -0.20494762 9 6
-3.2967832 2.1108131 -0.20515697 9 6
-3.2920134 2.1403093 -0.20578501 6 6
-3.296993 2.1764438 -0.20704105 6 6
-3.294991 2.2083035 -0.20787844 6 6
-3.2860999 2.2357464 -0.20829713 6 6
-3.2934196 2.2745233 -0.20976254 6 6
-3.2807305 2.2997527 -0.20997187 6 6
-3.2715111 2.3266609 -0.21039055 6 6
-3.2616668 2.3541186 -0.21080926 6 6
-3.2515972 2.3815534 -0.21122794 6 6
-3.2541282 2.4184916 -0.21248402 6 6
-3.2503495 2.4502037 -0.21332137 6 6
-3.2458568 2.4825416 -0.21415874 6 6
-3.2442257 2.5173857 -0.21520546 6 6
-3.2359879 2.5473857 -0.2158335 9 6
-3.2426438 2.5904222 -0.21750826 6 6
-3.2431018 2.6280859 -0.21876432 6 6
-3.2303832 2.6562996 -0.21918301 6 6
-3.2249684 2.6878958 -0.22002037 6 6
-3.2152767 2.7180815 -0.22064841 6 6
-3.1962228 2.7404621 -0.22064841 6 6
-3.2016125 2.7831197 -0.22232316 6 6
-3.2120683 2.8318188 -0.2244166 6 6
-3.2041326 2.8648236 -0.22525398 6 6
-3.1988492 2.9005394 -0.2263007 6 6
-3.1907954 2.9330585 -0.22713807 6 6
-3.1936162 2.9770529 -0.22881283 5 6
-3.186743 3.0135527 -0.22985955 5 6
-3.1771595 3.0467851 -0.2306969 5 6
-3.1592107 3.0711257 -0.23090626 5 6
-3.154762 3.1099315 -0.23216233 5 6
-3.1555741 3.1544726 -0.23383708 5 6
-3.1587222 3.2020192 -0.23572117 5 6
-3.1535687 3.2406223 -0.23697723 5 6
-3.1474633 3.2798512 -0.23823328 5 6
-3.1464539 3.3249555 -0.23990804 5 6
-3.136791 3.3614433 -0.24095476 5 6
-3.12466 3.3944721 -0.24179214 5 6
-3.119679 3.4369075 -0.24325755 5 6
-3.095005 3.4591436 -0.24325755 5 6
-3.104521 3.5201488 -0.24597903 5 6
-3.1028373 3.569406 -0.2478631 5 6
-3.0999012 3.6141617 -0.24953786 5 6
-3.0978088 3.6631663 -0.25142196 5 6
-3.0823915 3.6969759 -0.25225934 5 6
-2.5263736 3.0734699 -0.20850646 22 6
-2.5828178 3.1872392 -0.21499613 22 6
-2.5411131 3.1797822 -0.21332137 19 6
-2.4867194 3.1566525 -0.21059991 22 6
-2.4731956 3.184978 -0.2113326 19 6
-2.4606113 3.214855 -0.21216999 16 6
-2.4603274 3.2602258 -0.21405408 16 6
-2.4684968 3.31899 -0.21677555 12 6
-2.4612095 3.3591247 -0.21824095 12 6
-2.4447134 3.3859408 -0.21886899 12 6
-2.4476473 3.4403551 -0.22127645 6 6
-2.4785967 3.5358624 -0.2263007 3 6
-2.4272246 3.5132143 -0.22378856 3 6
-2.3464515 3.4475176 -0.21855497 6 6
-2.3401217 3.4903576 -0.22022973 6 6
-2.4631798 3.729939 -0.23425576 2 6
-2.4377339 3.746619 -0.23425576 2 6
-2.4373789 3.803906 -0.23676789 2 6
-2.4192896 3.8343425 -0.23760527 2 6
-2.3861401 3.8409588 -0.23697723 11 6
-2.3759401 3.8847852 -0.23865199 11 6
-2.3734848 3.9423437 -0.24116412 10 6
-2.3690023 3.9962058 -0.2434669 13 6
-2.3571489 4.0402489 -0.24514163 10 6
-2.3504822 4.0925708 -0.24733976 10 6
-2.3444529 4.1488738 -0.24974722 10 6
-2.3328984 4.1965613 -0.25163129 10 6
-2.3370817 4.2740798 -0.25529483 11 6
-2.3365126 4.3448205 -0.25853965 11 6
-2.3061233 4.3610268 -0.25853965 26 6
-2.2800717 4.3837109 -0.25895834 36 6
-2.2539582 4.4084134 -0.2594817 33 6
-2.2223547 4.4244289 -0.2594817 36 6
-2.203788 4.4649105 -0.26094711 6 6
-2.1890371 4.5121527 -0.26283121 6 6
-2.1781061 4.5705957 -0.26534331 6 6
-2.1723871 4.6417694 -0.26858816 6 6
-2.1641152 4.7094507 -0.27162364 6 6
-2.1451461 4.7553949 -0.27340308 4 6
-2.1240227 4.7976484 -0.27497312 6 6
-2.109627 4.8541255 -0.27738059 3 6
-2.1015353 4.9293647 -0.28083476 7 6
-2.0847907 4.9862976 -0.28324223 5 6
-1.1817787 2.8829041 -0.16328819 39 6
-1.2010874 2.9893074 -0.1688358 99 6
-1.1838486 3.0069115 -0.16935916 100 6
-1.1585156 3.0039222 -0.16873114 89 6
-1.1382215 3.0138052 -0.1688358 100 6
-1.112998 3.0104382 -0.16820778 100 6
-1.0831206 2.9937196 -0.16684705 86 6
-1.0175472 2.8750596 -0.15983403 36 6
-0.96936405 2.8009336 -0.15533313 58 6
-0.94899547 2.8036835 -0.1551238 52 6
-0.92939895 2.8102403 -0.1551238 50 6
-0.90484619 2.8014557 -0.15428641 52 6
-0.88286394 2.8000848 -0.15386772 52 6
-0.8637839 2.8060296 -0.15386772 54 6
-0.84532166 2.8158176 -0.15407708 54 6
-0.82515043 2.8217945 -0.15407708 54 6
-0.79995877 2.8082776 -0.15303035 54 6
-0.78086758 2.8157189 -0.15313502 56 6
-0.76535487 2.8365278 -0.1539724 29 6
-0.74247932 2.8281491 -0.1532397 37 6
-0.72074234 2.8255222 -0.152821 42 6
nan nan nan 0 6
-0.67468911 2.8081222 -0.15135561 30 6
-0.66231793 2.8438869 -0.15303035 37 6
-0.64815897 2.87377 -0.15439108 53 6
-0.62084162 2.8450522 -0.15261166 42 6
-0.59816265 2.8335783 -0.15177429 49 6
-0.57866776 2.8417001 -0.15198363 57 6
-0.55958462 2.8495905 -0.15219298 57 6
-0.54041809 2.857353 -0.15240233 59 6
-0.51759851 2.845336 -0.15156494 59 6
-0.498907 2.8527279 -0.15177429 59 6
-0.47831976 2.8522017 -0.15156494 57 6
-0.45966089 2.8633597 -0.15198363 63 6
-0.44177926 2.8803184 -0.15271634 21 6
-0.42166147 2.8833323 -0.15271634 16 6
-0.39766893 2.8585107 -0.15125093 36 6
-0.3787486 2.8691378 -0.15166962 52 6
-0.35945162 2.8776572 -0.15198363 59 6
-0.33935305 2.8800964 -0.15198363 63 6
-0.31879818 2.8784254 -0.15177429 63 6
-0.2980786 2.8746209 -0.15146028 62 6
-0.27723423 2.86868 -0.15104158 45 6
-0.48302776 5.390976 -0.28366089 21 6
-0.44554427 5.3962073 -0.28376558 8 6
-1.160821 15.331017 -0.8057645 2 6
-1.0803107 15.725304 -0.82607079 2 6
-1.0039614 16.228662 -0.85213417 11 6
-0.89359331 16.28912 -0.85496026 48 6
-0.78413332 16.324751 -0.85653037 68 6
-0.66574657 16.292027 -0.8545416 51 6
-0.5514496 16.280308 -0.85370415 50 6
-0.43800074 16.29175 -0.85412294 50 6
-0.32728854 16.304335 -0.85464621 52 6
-0.21377636 16.330189 -0.85590225 58 6
-0.099862561 16.347261 -0.8567397 54 6
0.014261791 16.343567 -0.85653037 56 6
0.13397524 17.445543 -0.91430926 80 6
0.25596979 17.458162 -0.91504198 82 6
0.37504697 17.467997 -0.91566998 77 6
0.49722302 17.47294 -0.9160887 75 6
nan nan nan 0 6
0.64543891 15.209419 -0.79780936 3 6
0.71770418 14.570314 -0.76452374 3 6
0.78765798 14.000617 -0.73490155 4 6
0.85469335 13.47239 -0.70747751 4 6
0.91195184 12.944107 -0.68005347 5 6
nan nan nan 0 6
0.51907164 6.1556764 -0.32375026 68 6
0.56076175 6.13798 -0.32301757 81 6
0.60261834 6.1239772 -0.32249418 78 6
0.64407706 6.1177468 -0.32238951 74 6
0.68722016 6.1170712 -0.32259887 76 6
0.72955137 6.1182013 -0.32291287 72 6
0.77406549 6.1187677 -0.3232269 67 6
0.81675339 6.1212764 -0.32364559 65 6
0.85863417 6.1094923 -0.32333156 58 6
0.90291494 6.1071424 -0.3235409 58 6
0.94797307 6.1164804 -0.32437828 60 6
0.99129039 6.113656 -0.32458761 58 6
1.0352814 6.1144638 -0.32500634 56 6
1.0754899 6.0994072 -0.32458761 58 6
1.1194879 6.0996084 -0.32500634 56 6
1.1627895 6.0955682 -0.32521567 54 6
1.2091955 6.1068945 -0.32626238 56 6
1.2507359 6.0985222 -0.32626238 56 6
1.2920364 6.0837803 -0.32594836 49 6
1.3370489 6.0863166 -0.32657638 49 6
1.3870263 6.1099439 -0.32835582 60 6
1.4323794 6.1117802 -0.32898384 54 6
1.4759514 6.105514 -0.3291932 54 6
1.5199857 6.1008763 -0.32950723 19 6
nan nan nan 0 6
4.619287 17.50803 -0.9489556 8 6
nan nan nan 0 6
4.9523277 17.761192 -0.96633118 38 6
5.0866513 17.762669 -0.96831995 50 6
5.2257414 17.778461 -0.97114617 60 6
5.3664522 17.796999 -0.97418153 67 6
5.5059071 17.808712 -0.97690302 71 6
5.6469831 17.823153 -0.97983384 68 6
5.7836056 17.821291 -0.98192734 66 6
5.921114 17.820278 -0.98412544 60 6
6.0583339 17.826841 -0.9867422 68 6
6.2075629 17.855799 -0.99071974 66 6
6.3461175 17.851545 -0.99291784 60 6
6.4890075 17.857491 -0.99574399 66 6
6.6347218 17.878447 -0.99940753 63 6
6.7841535 17.897058 -1.003071 59 6
nan nan nan 0 6
7.0744767 17.904613 -1.0089327 39 6
7.2141037 17.900503 -1.0114448 48 6
7.244729 17.620644 -0.99846548 17 6
7.3814616 17.602793 -1.0003495 27 6
7.5324397 17.616943 -1.0041177 12 6
7.6935501 17.651812 -1.009142 20 6
nan nan nan 0 6
7.6061072 16.814344 -0.96716857 1 6
7.6046085 16.503258 -0.95230514 2 6
7.6373329 16.274382 -0.94215196 6 6
7.6896329 16.092714 -0.93472028 3 6
8.5828371 17.644302 -1.0282969 2 6
8.2456341 16.661806 -0.97428626 2 6
9.0831127 18.036249 -1.0583378 19 6
nan nan nan 0 6
8.4875269 16.28356 -0.96235365 1 6
8.6103477 16.24156 -0.96340036 1 6
8.7273169 16.188084 -0.96381903 2 6
8.899641 16.235348 -0.97030872 3 6
9.1022158 16.333326 -0.97993857 4 6
9.5585947 16.87414 -1.0163643 2 6
10.07278 17.495895 -1.0580238 7 6
10.702991 18.293997 -1.1107785 4 6
10.875228 18.301414 -1.115698 4 6
11.055368 18.31225 -1.1210363 3 6
9.710001 15.839086 -0.9736582 2 6
9.7126675 15.597974 -0.9629817 1 6
11.60837 18.355537 -1.1382025 1 6
11.951012 18.608475 -1.1590322 4 6
12.160276 18.646713 -1.1666733 4 6
12.283532 18.551376 -1.1660452 4 6
12.36943 18.40765 -1.162277 3 6
12.418844 18.205357 -1.15495 19 6
12.625229 18.233156 -1.162277 29 6
12.65805 18.010572 -1.1536939 9 6
12.312585 17.261612 -1.1111971 21 6
12.500048 17.274488 -1.1174774 29 6
12.629791 17.199686 -1.1183149 16 6
12.624268 16.942924 -1.1073242 12 6
11.418281 15.108644 -0.99249917 2 6
12.436172 16.218864 -1.0711079 25 6
9.3087521 11.961932 -0.79435521 6 6
12.587481 15.944244 -1.0646181 9 6
12.183946 15.218939 -1.0217026 5 6
12.32641 15.178471 -1.0247382 45 6
12.500642 15.175298 -1.0303905 24 6
12.572992 15.047801 -1.027669 22 6
10.172665 12.003686 -0.82460541 8 6
12.18821 14.180107 -0.97993857 22 6
12.162222 13.951653 -0.96999466 3 6
12.299015 13.911297 -0.97313493 26 6
12.477403 13.920955 -0.97972924 28 6
12.542044 13.798038 -0.97721708 20 6
12.124075 13.157154 -0.93765104 8 6
10.281969 11.002938 -0.78922629 3 6
10.319219 10.885595 -0.78608614 5 6
12.523785 13.027781 -0.94707155 15 6
12.522955 12.850693 -0.94037253 15 6
12.516908 12.666345 -0.93325484 16 6
12.110929 12.089814 -0.89682907 7 6
12.276165 12.084833 -0.90279531 22 6
12.455574 12.095612 -0.90991306 33 6
12.48634 11.957247 -0.90604013 20 6
12.482381 11.787515 -0.89975989 16 6
11.922704 11.102558 -0.85380888 3 6
12.091139 11.102799 -0.86029857 4 6
12.175752 11.024824 -0.86082184 15 6
12.383529 11.056611 -0.87003303 24 6
12.490398 10.996284 -0.87212652 24 6
10.569826 9.1785002 -0.7336455 7 6
9.1589851 7.8418856 -0.63190436 12 6
11.827839 9.9846973 -0.81120741 2 6
12.013927 9.9989815 -0.81916243 13 6
12.210053 10.018747 -0.82774556 21 6
12.407032 10.036261 -0.83632863 23 6
12.451634 9.9328995 -0.83475858 26 6
12.445321 9.7864628 -0.82973433 23 6
12.447036 9.6479549 -0.82533813 20 6
11.88878 9.0830851 -0.78409737 27 6
12.258239 9.2305384 -0.80419439 19 6
10.652769 7.905683 -0.6952309 4 6
12.276343 8.9816332 -0.79718137 14 6
12.458632 8.9821491 -0.80492711 35 6
12.444597 8.8439112 -0.80011219 24 6
12.44702 8.7122631 -0.79623932 26 6
12.441916 8.583106 -0.79215711 25 6
12.440414 8.4544983 -0.78828424 27 6
12.437933 8.3296146 -0.78451604 29 6
12.0473 7.9467473 -0.75635934 13 6
12.258243 7.9636445 -0.76609379 18 6
12.454864 7.968286 -0.77488625 29 6
12.439215 7.8364286 -0.77049005 26 6
12.444403 7.7188587 -0.7674545 33 6
12.436618 7.5943255 -0.76368636 33 6
12.44825 7.4826217 -0.7611742 33 6
10.852313 6.4231539 -0.66089851 10 6
12.434606 7.2429247 -0.75416124 5 6
12.046467 6.9046602 -0.72767919 11 6
12.264864 6.9165425 -0.73793703 15 6
11.965297 6.637938 -0.71710736 22 6
12.447905 6.7924514 -0.74317068 24 6
12.437537 6.6773386 -0.73982114 25 6
12.448525 6.5716968 -0.7377277 27 6
12.446882 6.4628801 -0.73500621 25 6
12.452562 6.3558517 -0.73270345 24 6
12.451305 6.2433043 -0.72998202 25 6
nan nan nan 0 6
12.135596 5.8718081 -0.70653552 8 6
12.394311 5.8958621 -0.71930546 10 6
12.47317 5.8269424 -0.72150356 27 6
12.46453 5.7172384 -0.7186774 21 6
11.86762 5.3459735 -0.68214691 15 6
11.95032 5.2831812 -0.68476373 25 6
12.466029 5.4100442 -0.71218777 21 6
12.474093 5.31036 -0.710513 21 6
12.485058 5.2123785 -0.70904762 24 6
nan nan nan 0 6
12.093205 4.8516355 -0.68287963 8 6
12.351693 4.8555117 -0.69554496 7 6
12.492557 4.812964 -0.70161593 21 6
12.497822 4.7150569 -0.70004582 22 6
12.485467 4.6110902 -0.69753373 19 6
12.492938 4.5149822 -0.69617295 18 6
12.512856 4.4236603 -0.69554496 17 6
12.503792 4.3224993 -0.69334686 11 6
nan nan nan 0 6
12.501513 4.1296415 -0.68999732 6 6
12.518634 4.0385847 -0.68936932 3 6
12.173138 3.8335047 -0.66885358 1 6
12.520342 3.8469827 -0.68643844 1 6
12.527764 3.7537422 -0.68539172 2 6
12.532577 3.6600316 -0.68424034 3 6
12.530304 3.5669901 -0.68277496 5 6
12.543353 3.4762247 -0.68214691 8 6
12.555746 3.3854516 -0.68151885 10 6
12.555316 3.2938268 -0.6802628 14 6
12.543167 3.1972201 -0.67837876 14 6
12.549674 3.1057301 -0.67754138 15 6
12.555512 3.0143108 -0.67670399 15 6
12.176971 2.8359149 -0.65524626 3 6
12.527688 2.8255374 -0.67304045 1 6
12.601748 2.7499259 -0.67597127 1 6
nan nan nan 0 6
nan nan nan 0 6
nan nan nan 0 6
nan nan nan 0 6
11.396702 2.0752406 -0.60709715 0 6
12.597253 2.2031085 -0.67021435 4 6
12.610356 2.1147792 -0.67010969 10 6
12.612982 2.0247853 -0.66948164 16 6
nan nan nan 0 6
9.0667515 1.3275459 -0.4802348 3 6
9.075799 1.2642157 -0.4802348 2 6
9.0863838 1.2010854 -0.48033947 4 6
9.0866184 1.1366297 -0.47992074 15 6
9.0983 1.0736378 -0.48013014 3 6
9.0896921 1.0083319 -0.47929272 4 6
9.0983334 0.94664365 -0.47939742 7 6
12.60944 1.2230387 -0.66393399 10 6
12.659445 1.138736 -0.66613209 43 6
12.629268 1.0471989 -0.66414332 34 6
12.628137 0.96059775 -0.66372466 37 6
12.636528 0.87255698 -0.66382933 50 6
12.255454 0.76245707 -0.64352298 14 6
12.649351 0.69834834 -0.66393399 35 6
12.655807 0.61233312 -0.66403866 39 6
12.655783 0.5237928 -0.66382933 50 6
12.661202 0.43329102 -0.66393399 52 6
12.667912 0.34499738 -0.66414332 54 6
12.677955 0.2589246 -0.66456205 54 6
12.689438 0.17054972 -0.66508538 56 6
12.676339 0.081860252 -0.66435266 52 6
12.686588 -0.0066426829 -0.66487604 56 6
12.70221 -0.095330805 -0.66571343 36 6
12.609371 -0.18267506 -0.66089851 11 6
12.322292 -0.26241845 -0.64593047 14 6
nan nan nan 0 6
12.702658 -0.44802618 -0.66613209 35 6
9.9554386 -0.42073774 -0.52220821 15 6
9.2520695 -0.45573902 -0.48546836 20 6
12.754301 -0.71754223 -0.66948164 48 6
12.746988 -0.8064397 -0.66937697 52 6
12.745031 -0.8956902 -0.6695863 41 6
12.752579 -0.98349643 -0.67031902 44 6
nan nan nan 0 6
nan nan nan 0 6
6.8099523 -0.66772169 -0.35860601 1 6
12.384692 -1.3016835 -0.65262944 3 6
12.790129 -1.4346427 -0.67450589 35 6
12.835598 -1.5282804 -0.67743665 43 6
12.8048 -1.6153522 -0.67638999 31 6
12.809049 -1.7068167 -0.67722732 39 6
12.824512 -1.8000849 -0.67869276 39 6
12.314026 -1.8139852 -0.65231544 8 6
nan nan nan 0 6
11.782749 -1.9041682 -0.62551939 1 6
11.796741 -1.9910338 -0.62698483 2 6
11.774684 -2.0719566 -0.62656611 4 6
6.8327842 -1.2515852 -0.36404896 2 6
6.831955 -1.299558 -0.36446762 2 6
6.8187976 -1.3464483 -0.36425829 2 6
11.808537 -2.4175017 -0.63169503 4 6
11.1935 -2.3731267 -0.5996654 9 6
10.985472 -2.4092834 -0.58940756 2 6
12.014858 -2.7208893 -0.64561641 1 6
11.661541 -2.7244554 -0.62761283 2 6
11.417002 -2.7515192 -0.61547089 1 6
11.14117 -2.7695453 -0.60165417 2 6
10.87003 -2.7828619 -0.58804685 2 6
10.649968 -2.8039026 -0.57716101 2 6
10.410359 -2.8186789 -0.56522834 1 6
6.3881888 -1.7776064 -0.34751078 2 6
4.9199839 -1.4061372 -0.26816946 2 6
6.2480774 -1.8318015 -0.34123048 1 6
6.2351365 -1.8753765 -0.34123048 1 6
6.2218924 -1.9188597 -0.34123048 1 6
nan nan nan 0 6
6.7569389 -2.1876423 -0.37221336 2 6
6.7225442 -2.2284768 -0.37116665 2 6
6.484024 -2.1985054 -0.35881534 2 6
nan nan nan 0 6
6.2117553 -2.2033589 -0.34541735 1 6
6.1999764 -2.2480326 -0.34562668 1 6
6.1054721 -2.2621176 -0.34123048 1 6
nan nan nan 0 6
7.843646 -3.0297568 -0.44066879 0 6
6.7149177 -2.6477845 -0.37828431 2 6
6.718976 -2.7023733 -0.37954038 3 6
6.7253323 -2.7610028 -0.38100579 2 6
6.7869539 -2.8418281 -0.38561139 1 6
6.9065495 -2.9487426 -0.39356643 1 6
6.6244183 -2.8817539 -0.37859833 5 6
6.4964128 -2.8801703 -0.3724227 3 6
6.4870682 -2.9303865 -0.37305072 3 6
6.4555659 -2.9705937 -0.3724227 3 6
6.348381 -2.9737992 -0.36739844 2 6
6.2445412 -2.9784937 -0.36258355 2 6
6.2990551 -3.0586567 -0.36697978 2 6
nan nan nan 0 6
nan nan nan 0 6
nan nan nan 0 6
nan nan nan 0 6
nan nan nan 0 6
nan nan nan 0 6
nan nan nan 0 6
nan nan nan 0 6
nan nan nan 0 6
nan nan nan 0 6
nan nan nan 0 6
nan nan nan 0 6
nan nan nan 0 6
nan nan nan 0 6
nan nan nan 0 6
nan nan nan 0 6
nan nan nan 0 6
nan nan nan 0 6
nan nan nan 0 6
nan nan nan 0 6
nan nan nan 0 6
nan nan nan 0 6
nan nan nan 0 6
4.3571362 -3.1021817 -0.28031141 3 6
4.3191838 -3.120827 -0.27926469 3 6
4.1947446 -3.0745881 -0.27256569 16 6
4.1795883 -3.1085656 -0.27298436 4 6
4.1418419 -3.1256375 -0.27193764 8 6
4.0913763 -3.1326215 -0.27005357 4 6
4.0788703 -3.1684594 -0.27068159 4 6
4.0346894 -3.1795509 -0.26921618 6 6
3.9796329 -3.1814506 -0.26701808 6 6
3.9200945 -3.1789644 -0.26450595 6 6
3.8567128 -3.1713226 -0.2616798 6 6
nan nan nan 0 6
3.7754624 -3.1939032 -0.25916767 6 6
3.7303369 -3.200675 -0.25759763 7 6
3.6822875 -3.20435 -0.25581816 7 6
3.6313753 -3.2048688 -0.25382942 7 6
3.5782192 -3.2015452 -0.25163129 7 6
3.5557814 -3.2264478 -0.25163129 5 6
3.5214121 -3.2403738 -0.25079393 2 6
3.4695001 -3.2376261 -0.2487005 7 6
3.4134471 -3.2301941 -0.24629304 7 6
3.3663151 -3.2304368 -0.24451362 7 6
3.3342271 -3.2435262 -0.2437809 7 6
3.2930179 -3.2484906 -0.24242018 7 6
3.2984998 -3.2996511 -0.24451362 2 6
3.1828427 -3.2287238 -0.23760527 5 6
3.1496522 -3.2388587 -0.23676789 8 6
3.1131406 -3.2463529 -0.23572117 11 6
3.0739336 -3.2505934 -0.23446509 8 6
3.0307336 -3.2500639 -0.23289503 11 6
2.989044 -3.2505605 -0.23142964 11 6
2.9542031 -3.2580323 -0.23048759 5 6
3.011848 -3.3673859 -0.23676789 2 6
2.8812592 -3.2669976 -0.22828946 8 6
2.8465867 -3.2734687 -0.22734742 9 6
2.8080635 -3.2750669 -0.22609136 9 6
2.7573328 -3.2605534 -0.22378856 12 6
2.7242708 -3.2674518 -0.2229512 12 6
2.6930876 -3.2751205 -0.2222185 12 6
2.6469483 -3.2663767 -0.2203344 9 6
nan nan nan 0 6
2.5837851 -3.2810476 -0.21886899 12 6
2.5466924 -3.2796285 -0.21761292 12 6
2.5200932 -3.2925704 -0.21729892 15 6
2.4868474 -3.2977619 -0.21646154 15 6
2.4494674 -3.2958064 -0.21520546 19 6
2.4198945 -3.3027368 -0.21457745 22 6
2.3850868 -3.3033574 -0.21353073 22 6
2.3353369 -3.2824972 -0.21112327 13 6
2.3639536 -3.3723159 -0.2158335 3 6
2.2796395 -3.2995951 -0.21018122 9 6
2.2621675 -3.3236845 -0.21070457 13 6
2.2322354 -3.329443 -0.21007656 13 6
2.2045348 -3.3382785 -0.20965785 13 6
2.1763151 -3.344837 -0.2091345 13 6
2.1378253 -3.3364055 -0.20766909 13 6
2.098979 -3.3279676 -0.2062037 12 6
2.0662117 -3.3272691 -0.20526163 12 6
2.044558 -3.3429606 -0.20536631 3 6
2.0067482 -3.3331971 -0.2039009 3 6
1.9722291 -3.3282249 -0.20274951 12 6
1.9429086 -3.3315609 -0.20212148 15 6
1.9186089 -3.3433113 -0.20201682 15 6
1.8948253 -3.3545542 -0.20191215 18 6
1.8612731 -3.3481719 -0.20076075 17 6
1.8244385 -3.3365507 -0.19929534 17 6
1.7992085 -3.3456883 -0.199086 17 6
1.7664713 -3.3405116 -0.19803928 13 6
1.7467923 -3.3598506 -0.19845797 5 6
1.7469251 -3.4182038 -0.20117943 2 6
1.6790924 -3.3428626 -0.19605052 13 6
1.6565979 -3.3562944 -0.19615518 18 6
1.630512 -3.3623862 -0.19584116 18 6
1.6069984 -3.3736873 -0.19584116 18 6
1.5774829 -3.3721602 -0.19510846 18 6
1.5463996 -3.3667564 -0.19416642 21 6
1.5209836 -3.3717422 -0.19385241 21 6
1.4925563 -3.3713207 -0.19322437 20 6
1.464797 -3.3704119 -0.19259633 20 6
1.4333994 -3.3621829 -0.19154961 5 6
1.4339471 -3.4313245 -0.19489913 2 6
1.3781534 -3.3636293 -0.1905029 19 6
1.3567157 -3.3766387 -0.19071224 19 6
1.3309143 -3.3804529 -0.19039823 21 6
1.3022513 -3.3766172 -0.18966553 26 6
1.2751181 -3.3762841 -0.18914215 28 6
1.2473611 -3.3738642 -0.18851414 26 6
1.2209678 -3.3728862 -0.18799078 27 6
1.1973912 -3.3813281 -0.18799078 24 6
1.1678741 -3.3726192 -0.18704872 27 6
1.1372023 -3.35779 -0.18579267 19 6
nan nan nan 0 6
1.088367 -3.3676388 -0.18547864 4 6
1.0672337 -3.3827741 -0.18589734 20 6
1.0412414 -3.3825064 -0.18547864 23 6
1.0141561 -3.3782158 -0.1848506 25 6
0.98830372 -3.3775458 -0.18443193 27 6
0.96415251 -3.3824425 -0.18432724 27 6
0.94110692 -3.388927 -0.18432724 29 6
0.91846681 -3.3992708 -0.18453661 29 6
0.89166844 -3.3940098 -0.18390857 38 6
0.86548203 -3.390476 -0.18338521 40 6
0.83650577 -3.3751109 -0.18223381 30 6
nan nan nan 0 6
0.78762329 -3.3765981 -0.18171045 6 6
0.76315075 -3.3781183 -0.18150112 22 6
0.74194109 -3.3971517 -0.18223381 34 6
0.71861893 -3.4042027 -0.18233849 48 6
0.69383407 -3.4011874 -0.1819198 72 6
0.66737401 -3.3922305 -0.18118709 100 6
0.63831365 -3.365298 -0.17951234 48 6
0.62125665 -3.4050391 -0.18139644 56 6
0.5967803 -3.4053588 -0.18118709 70 6
0.57133716 -3.3995938 -0.18066373 96 6
0.54723078 -3.3974886 -0.18034972 76 6
0.519853 -3.3775377 -0.17909366 65 6
nan nan nan 0 6
nan nan nan 0 6
0.45031705 -3.397584 -0.17961702 75 6
0.42608973 -3.3966815 -0.17940767 100 6
0.40048802 -3.3837061 -0.1785703 111 6
0.37707642 -3.3884046 -0.17867498 114 6
0.35483342 -3.3988385 -0.17909366 118 6
0.33051631 -3.3952692 -0.17877965 120 6
0.30721778 -3.3954513 -0.17867498 128 6
0.28167903 -3.3756196 -0.17752358 122 6
0.25825807 -3.3794949 -0.17762825 124 6
0.23562683 -3.3951631 -0.17836095 126 6
0.21254021 -3.406692 -0.17888431 128 6
nan nan nan 0 6
0.16447206 -3.399353 -0.17836095 121 6
0.14081909 -3.4024138 -0.17846562 124 6
0.11733697 -3.4112983 -0.17888431 123 6
0.09335459 -3.406045 -0.1785703 126 6
0.069329761 -3.3946326 -0.17794226 121 6
0.04619398 -3.3930287 -0.1778376 115 6
0.022505453 -3.3932686 -0.1778376 104 6
-0.0011876576 -3.4033294 -0.17836095 114 6
-0.02438199 -3.4072368 -0.1785703 100 6
-0.048280921 -3.4149718 -0.17898898 100 6
-0.071315683 -3.4045796 -0.17846562 71 6
-0.095472775 -3.4179747 -0.17919834 84 6
-0.11898348 -3.4072444 -0.17867498 30 6
-0.14444037 -3.4462411 -0.18076842 58 6
-0.16878843 -3.4511333 -0.18108243 92 6
-0.19176245 -3.429929 -0.1800357 84 6
-0.21620484 -3.4364803 -0.1804544 80 6
-0.240748 -3.4428566 -0.18087308 74 6
-0.26478839 -3.4491038 -0.18129177 72 6
-0.28836089 -3.4412005 -0.18097776 70 6
-0.31069538 -3.4272232 -0.18034972 58 6
-0.33558497 -3.4349096 -0.18087308 60 6
-0.36038929 -3.4404287 -0.18129177 44 6
-0.38706249 -3.4616475 -0.18254784 36 6
nan nan nan 0 6
-0.43335983 -3.440053 -0.18171045 4 6
-0.45894569 -3.4488227 -0.18233849 26 6
-0.48633873 -3.4692698 -0.18359455 29 6
-0.51287556 -3.4815972 -0.18443193 34 6
-0.5365622 -3.4780257 -0.18443193 34 6
-0.55987507 -3.4682798 -0.18411791 29 6
-0.5860669 -3.4761035 -0.18474595 31 6
-0.61282301 -3.489738 -0.18568799 31 6
-0.6393261 -3.4971628 -0.18631603 31 6
-0.66596216 -3.5043874 -0.18694405 24 6
-0.68886489 -3.4918146 -0.18652536 20 6
-0.7114169 -3.4811745 -0.18621135 6 6
-0.74107885 -3.5015244 -0.18757208 2 6
-0.76294261 -3.4845595 -0.18694405 18 6
-0.79298115 -3.5044725 -0.1883048 22 6
-0.81788152 -3.5007958 -0.18840946 24 6
-0.84417355 -3.5027673 -0.18882816 23 6
-0.87088305 -3.5085709 -0.18945618 23 6
-0.89980835 -3.5198207 -0.19039823 23 6
-0.92689979 -3.5231109 -0.19092159 21 6
-0.94990832 -3.5107703 -0.19060758 21 6
-0.97752666 -3.5176933 -0.19134027 17 6
-0.99986792 -3.5031011 -0.19092159 14 6
-1.0344075 -3.5305357 -0.19280569 2 6
-1.0659293 -3.546181 -0.19406174 2 6
-1.0847772 -3.5195663 -0.19301502 17 6
-1.1129315 -3.5233345 -0.19364306 20 6
-1.1461101 -3.5420828 -0.19510846 18 6
-1.1764631 -3.5510585 -0.19605052 15 6
-1.2037904 -3.5503244 -0.1964692 16 6
-1.2265835 -3.5361733 -0.19615518 13 6
-1.2565821 -3.5425828 -0.19699256 13 6
-1.286049 -3.5468674 -0.19772527 13 6
-1.3122424 -3.5436504 -0.19803928 8 6
-1.1503986 -3.0412302 -0.17040588 3 6
-1.1638794 -3.0146973 -0.16935916 19 6
nan nan nan 0 6
-1.4294406 -3.5540528 -0.20076075 14 6
-1.4617993 -3.5624645 -0.20180747 15 6
-1.4889475 -3.5576997 -0.20212148 12 6
-1.510613 -3.53987 -0.20170279 9 6
-1.2875071 -2.9596517 -0.16914983 8 6
-1.2935671 -2.9177256 -0.16726573 7 6
-1.3010689 -2.8815484 -0.16569565 7 6
-1.302793 -2.8324757 -0.16339287 7 6
-1.2971184 -2.7690518 -0.16025271 7 6
-1.3009413 -2.7274802 -0.15836863 5 6
-1.3055232 -2.6898129 -0.15669388 4 6
-1.3101152 -2.6519825 -0.15501912 4 6
-1.3119943 -2.6108806 -0.15313502 4 6
-1.3074586 -2.5572002 -0.15051822 4 6
-1.3091725 -2.5181162 -0.1487388 3 6
-1.216418 -2.2983844 -0.13628285 1 6
-1.2273031 -2.2812569 -0.13575949 25 6
-1.244158 -2.2743855 -0.13586415 4 6
-1.3114538 -2.3581553 -0.14141177 7 6
-1.3278849 -2.348942 -0.14141177 3 6
-1.3512163 -2.3517368 -0.14214447 2 6
-1.3766652 -2.357769 -0.14308652 3 6
-1.3183107 -2.2229385 -0.13544546 30 6
-1.3276126 -2.2034168 -0.13481744 37 6
-1.3175631 -2.1534407 -0.13230531 26 6
-1.329402 -2.1391008 -0.1319913 27 6
-1.3368404 -2.1179454 -0.13125859 29 6
-1.3278817 -2.0715687 -0.12895581 22 6
-1.3303267 -2.0438349 -0.12780441 24 6
-1.3368547 -2.0228338 -0.12707172 11 6
-1.342805 -2.0020761 -0.126339 29 6
-1.3488809 -1.9810965 -0.12560631 34 6
-1.3430345 -1.9439347 -0.12382689 30 6
-1.3370786 -1.9067116 -0.12204745 31 6
-1.3480407 -1.8940766 -0.12183812 31 6
-1.3495367 -1.8684283 -0.1207914 28 6
-1.3480581 -1.839866 -0.11953534 35 6
-1.34657 -1.8111762 -0.11827926 39 6
-1.349247 -1.7892113 -0.1174419 43 6
-1.3477554 -1.7602432 -0.11618583 43 6
-1.3486812 -1.7368309 -0.11524379 41 6
-1.3521222 -1.7163908 -0.11451109 42 6
-1.3528496 -1.6928674 -0.11356904 41 6
-1.3457696 -1.6601087 -0.11199896 37 6
-1.3497149 -1.6414171 -0.11137092 39 6
-1.3547449 -1.6242853 -0.11084756 41 6
-1.3647617 -1.6132632 -0.1107429 42 6
-1.3681874 -1.5946016 -0.11011487 42 6
-1.3606584 -1.564155 -0.10864946 42 6
