# .PCD v0.7 - Point Cloud Data file format
VERSION 0.7
FIELDS x y z intensity
SIZE 4 4 4 4
TYPE F F F F
COUNT 1 1 1 1
WIDTH 1089
HEIGHT 1
VIEWPOINT 0 0 0 1 0 0 0
POINTS 1089
DATA ascii
-3.6542206 0.8493042 0.046786029 0.14151184
-3.5826263 0.90692139 0.054177959 0.14516437
-3.5370941 0.96594238 0.045494992 0.13567463
-3.4612122 1.0181885 0.057802994 0.13665892
-3.3848114 1.0684509 0.071297601 0.1539526
-3.3306274 1.1210938 0.07026501 0.15276071
-3.2603149 1.1673584 0.081966951 0.16935107
-3.1578903 1.2036133 0.11777134 0.15935794
-3.1882935 1.2753601 0.055872522 0.14751193
-3.1283646 1.3213196 0.060875852 0.13765346
-3.0833893 1.3705139 0.055058204 0.11584705
-3.0153732 1.4098816 0.068102077 0.090639926
-2.9703064 1.4576721 0.062566712 0.07904733
-2.9094391 1.4960022 0.071597889 0.074590147
-2.8474731 1.5339966 0.081175521 0.072567232
-2.7918701 1.5716858 0.087070182 0.072262771
-2.7183533 1.6005554 0.10837622 0.077943504
-2.7059021 1.6595154 0.075844482 0.081872568
-2.6647797 1.7032776 0.068792298 0.081353858
-2.5841217 1.7209778 0.10054667 0.079678588
-2.5506592 1.7689209 0.085890964 0.074648552
-2.4905243 1.7969971 0.098865703 0.072299711
-2.4569702 1.8441467 0.084214166 0.079984516
-2.3952026 1.8686523 0.099916413 0.078462102
-2.3567047 1.9112549 0.090388134 0.073896378
-2.3129883 1.9490356 0.086684182 0.070863269
-2.2615509 1.9802246 0.091372207 0.069879107
-2.201004 1.9998779 0.10861368 0.065602891
-2.1620636 2.0414124 0.098904327 0.071024537
-2.0978699 2.0555725 0.12135679 0.07159967
-2.0547791 2.0919189 0.11681408 0.072682559
-1.9962158 2.1086121 0.13400835 0.079688065
-1.9395294 2.1264038 0.14917892 0.096162185
-1.9134064 2.1838379 0.12000365 0.10474112
-1.8542023 2.1972351 0.1390112 0.12126554
-1.8090515 2.2289124 0.13744873 0.12309539
-1.7625275 2.2585144 0.13778943 0.11762056
-1.7188568 2.2939453 0.13210577 0.12117977
-1.6611176 2.3035583 0.15211672 0.11438877
-1.6154175 2.3344727 0.15022665 0.10596222
-1.5133514 2.2478027 0.26229838 0.081943713
-1.4904785 2.3205872 0.21789651 0.081374489
-1.4833069 2.4483337 0.12456638 0.082032502
-1.4370422 2.4834595 0.1185624 0.077925771
-1.3838959 2.5007629 0.12886494 0.07539428
-1.3325653 2.5227051 0.13450283 0.075426929
-1.2803497 2.5439453 0.14078848 0.081109405
-1.2339325 2.5878296 0.12697999 0.079567529
-1.1776733 2.5921936 0.14730148 0.072576061
-1.1238708 2.6058655 0.15913694 0.076694533
-1.0737305 2.6429443 0.15120523 0.075536631
-1.0198364 2.6609192 0.15920453 0.079588108
-0.96809387 2.6979065 0.15140037 0.083982274
-0.91500854 2.7277832 0.14928298 0.086807802
-0.89419556 2.8095703 0.23062365 0.10165031
-0.83796692 2.8399048 0.22970538 0.10111479
-0.78244019 2.8851929 0.21754472 0.1007793
-0.72547913 3.0322266 0.13294522 0.082627013
-0.66362 3.0715027 0.12687568 0.075950943
-0.60127258 3.088501 0.13665085 0.071155354
-0.53753662 3.1256409 0.13223486 0.07351622
-0.47442627 3.1403198 0.14340179 0.073040001
-0.40673828 3.1852417 0.1342582 0.073816143
-0.34373474 3.1876831 0.15360491 0.078192063
-0.27259827 3.2384644 0.14083342 0.086511992
-0.20300293 3.2716064 0.13994257 0.092848942
-0.13162231 3.2951355 0.14611869 0.10553279
-0.058486938 3.3256836 0.14762871 0.11125429
0.005279541 3.3201294 0.17147914 0.1100581
0.096069336 3.4024048 0.14117816 0.11235136
0.17082214 3.4204712 0.1511586 0.1049242
0.28051758 3.5389709 0.10036294 0.072677791
0.31710815 3.4356384 0.18398896 0.08386644
0.46334839 3.6341553 0.087034382 0.046659045
0.55149841 3.6636047 0.09170834 0.039430011
0.63894653 3.6863708 0.10052387 0.038661152
0.73536682 3.7216187 0.10279813 0.035740089
0.82228088 3.7342529 0.1178861 0.034688421
0.91378784 3.7513123 0.13081421 0.033868473
1.0110931 3.776001 0.13966812 0.032925539
1.1047211 3.7890625 0.15524103 0.031906128
1.2028809 3.806366 0.16873361 0.034094799
1.3100739 3.8357239 0.17593157 0.036602203
1.4304352 3.8793335 0.17631221 0.03767414
1.5392303 3.9005737 0.18873727 0.04110508
1.6531982 3.923584 0.20085859 0.038511399
1.841095 4.0446167 0.16409147 0.031181226
1.9953918 4.1090393 0.15713666 0.028463012
2.0736237 4.0661926 0.20401822 0.025700571
2.0969238 3.9585876 0.28114232 0.025356513
2.4490051 4.2400818 0.1733509 0.015276422
2.5704041 4.2378235 0.20174918 0.01515432
2.7625122 4.3074646 0.1977931 0.021184508
2.9716187 4.3857727 0.19144137 0.022061933
3.1689148 4.4420471 0.19647498 0.027702523
3.3721161 4.4957581 0.20391972 0.03112133
3.5333099 4.5023193 0.23273915 0.033287346
3.5813446 4.3990173 0.30876234 0.03352591
4.1469269 4.7495422 0.19734804 0.025357999
4.3623657 4.7750854 0.22332649 0.023743952
4.7337189 4.9195251 0.20371631 0.024716662
5.0433655 4.9963684 0.21432759 0.026491961
5.4047089 5.1016846 0.21617986 0.026923282
5.8210144 5.2289734 0.21400785 0.029313361
6.2139893 5.3247986 0.22635935 0.035752207
6.6406097 5.4239197 0.24205539 0.03291174
7.1271057 5.5490112 0.25183517 0.060997825
7.5888519 5.6358948 0.27974159 0.07769569
8.3385773 5.8784485 0.26270202 0.069265276
8.8828278 5.9678345 0.30169284 0.070371762
9.6542664 6.1634827 0.31470215 0.070948474
10.82486 6.5367126 0.28801733 0.043231282
11.544907 6.6348572 0.34818715 0.059795018
13.028137 7.0689697 0.33475566 0.035814203
14.060471 7.2383423 0.40148136 0.077919908
16.020111 7.7726135 0.40364876 0.06172182
18.221252 8.3257751 0.43145594 0.045013513
20.518646 8.8299255 0.50041097 0.054814316
24.669876 9.9317932 0.51475722 0.04737471
29.157501 10.985199 0.60524076 0.050774492
34.458374 12.141754 0.75826955 0.050863419
44.481506 14.547485 0.9225387 0.032389581
56.40799 17.134644 1.2649961 0.055285685
60.156921 17.039764 1.8636906 0.066376708
69.259018 18.157745 2.5809259 0.093279339
0.51556396 -7.7684937 4.7955132 0.045897879
0.35205078 -7.8880005 4.7859316 0.038832683
0.13256836 -7.5045166 4.6069875 0.023864023
-0.00071716309 -7.9407654 4.7009254 0.037495814
-0.19003296 -7.804657 4.604444 0.030730167
-0.36209106 -7.8448486 4.5657783 0.030165244
-0.53594971 -7.8302002 4.5093384 0.033607945
-0.70838928 -7.5115356 4.3606739 0.030432148
-0.8724823 -7.5334473 4.3170204 0.028963268
-1.0576782 -7.9286194 4.3792009 0.035363674
-1.12677 -6.2311096 3.8434012 0.033608567
-1.555954 -9.7955933 4.7874513 0.014532713
-1.3434448 -5.6506958 3.5981574 0.025895899
-1.5453033 -6.2640991 3.7188609 0.026470836
-1.6711273 -6.1871643 3.6540616 0.019177286
-1.7497711 -5.8258667 3.5177796 0.027768929
-2.3436432 -8.3438721 4.0869851 0.0083902786
-2.0018921 -5.7806091 3.418622 0.029968305
-2.2045898 -6.1036682 3.4480038 0.028613366
-2.3808289 -6.2607117 3.4350233 0.029736571
-2.3290253 -5.5438538 3.2319751 0.032603249
-2.7170105 -6.4462891 3.3735478 0.022742614
-3.3627014 -8.0653687 3.6448133 0.025874661
-3.5642548 -8.1269531 3.5908682 0.031197356
-3.3005371 -6.8510437 3.2879984 0.024139281
-3.466362 -6.8639221 3.230628 0.025089014
-3.6986237 -7.0508423 3.2027731 0.026325341
-5.0260925 -9.8417358 3.5868626 0.033151444
-4.274704 -7.5996704 3.1586134 0.048689403
-4.8384399 -8.4234009 3.2054186 0.016068343
-4.8014069 -7.9260559 3.0595944 0.035115119
-4.4919434 -6.9281311 2.8577638 0.048153505
-5.026268 -7.6059875 2.8669157 0.048185665
-6.1945648 -9.3604736 2.9748096 0.017877862
-6.0519714 -8.6983032 2.8140025 0.034405947
-6.1309052 -8.4522705 2.7002101 0.035656784
-6.3007202 -8.3604736 2.5998161 0.039509617
-6.1789703 -7.826355 2.4706638 0.031029662
-8.3329315 -10.665314 2.5320854 0.03427868
-6.9250336 -8.2499695 2.3016486 0.066495173
-7.7675171 -9.068512 2.2249682 0.07035812
-7.9159927 -8.9101868 2.1066523 0.071882725
-8.1231995 -8.8239746 1.9872372 0.066369794
-8.4748611 -8.9153137 1.8664062 0.056581736
-8.8739777 -9.0437012 1.7370057 0.07133235
-8.5238953 -8.3088989 1.6294672 0.047666479
-9.1530457 -8.6814575 1.4836982 0.064743996
-9.37397 -8.5911255 1.3520318 0.065721743
-9.9980469 -8.9033203 1.1847126 0.020914072
-10.154099 -8.7324524 1.0508999 0.032287747
-9.571701 -7.8508911 0.98955446 0.036155038
-9.8670959 -7.8248291 0.84384853 0.037196536
-10.545891 -8.1290588 0.64454848 0.062556915
-10.304939 -7.6168213 0.56146258 0.068518355
-10.446838 -7.4415894 0.42753175 0.072399996
-10.71727 -7.3701782 0.27223057 0.078278631
-10.57383 -6.9760742 0.18594989 0.069371991
-10.155548 -6.3937073 0.15534554 0.077577889
-9.6468506 -5.7759399 0.15299271 0.07911858
-9.1550293 -5.2060242 0.16081321 0.073756106
-8.6621017 -4.6660461 0.18046057 0.07199277
-8.4740982 -4.3454285 0.14061524 0.066448607
-8.2054825 -3.9896851 0.12496116 0.060998771
-7.9274445 -3.6454468 0.11795762 0.055067241
-7.6063919 -3.2940369 0.12849942 0.047375813
-7.3686905 -3.0063171 0.12405125 0.042768732
-7.1763916 -2.7531433 0.11116676 0.05404263
-7.0821381 -2.5594177 0.07434433 0.052215178
-6.890152 -2.3280945 0.069573097 0.045152377
-6.750885 -2.1303101 0.052427351 0.044234991
-6.4814911 -1.8858643 0.079803169 0.034950636
-6.4237213 -1.7373962 0.04228396 0.032990437
-6.2714539 -1.5582275 0.038495373 0.030896399
-6.0295258 -1.3540344 0.068521447 0.034753092
-5.9304962 -1.2106018 0.052901935 0.031936701
-5.8125 -1.0641785 0.045133069 0.031689916
-5.4641571 -0.85632324 0.12673539 0.038818717
-5.4954529 -0.76693726 0.067985967 0.036656167
-5.417923 -0.64877319 0.051350314 0.03456071
-5.3181076 -0.52978516 0.045475565 0.032345366
-5.1182709 -0.39352417 0.082737759 0.030437024
-5.1446457 -0.30895996 0.027204242 0.030428158
-5.0693893 -0.20507812 0.014717191 0.032893557
-4.9271393 -0.09487915 0.033659901 0.037852097
-4.8465958 0.0010375977 0.027154654 0.040052343
-4.5228577 0.12045288 0.13566037 0.052232251
-4.5674133 0.19442749 0.074078642 0.049538035
-4.579422 0.27261353 0.026993485 0.049984217
-4.5019302 0.35644531 0.023654912 0.052952081
-4.4000015 0.43804932 0.03393361 0.048871335
-4.3169022 0.51443481 0.036761016 0.059430901
-4.2202759 0.58850098 0.047616452 0.071625128
-4.1243057 0.66033936 0.058981627 0.07967288
-4.0593109 0.72943115 0.05523929 0.090885438
-4.0002899 0.79696655 0.048895091 0.088695228
-3.957283 0.86505127 0.033525679 0.085734703
-3.8669586 0.92614746 0.046559665 0.088169917
-3.8049622 0.9883728 0.043766472 0.085309111
-3.7103271 1.0430298 0.062090367 0.090408213
-3.6522675 1.1011658 0.058967445 0.10101929
-3.5833359 1.1559753 0.063167423 0.10791276
-3.3978119 1.1804504 0.14544149 0.11387243
-3.3991394 1.2459412 0.10623869 0.11396868
-3.348526 1.2987671 0.10115131 0.11290053
-3.3575363 1.3688965 0.054677222 0.10321587
-3.309433 1.4219666 0.047586534 0.097711228
-3.2421341 1.4668884 0.055053446 0.092865564
-3.1792908 1.511261 0.060237978 0.082620688
-3.0945587 1.5458069 0.082377046 0.081356138
-3.0272675 1.5836182 0.093302213 0.091049127
-2.9983139 1.6398315 0.073107094 0.093894809
-2.9346008 1.6767273 0.082242459 0.10549452
-2.8892441 1.7243347 0.07517311 0.11439717
-2.7863007 1.7355957 0.11968943 0.12017878
-2.6492157 1.7218628 0.19686683 0.12658435
-2.6270599 1.7754517 0.17360575 0.12084246
-2.6807861 1.8839417 0.077198945 0.095613234
-2.6320496 1.9240417 0.075273715 0.079408832
-2.5686646 1.9529419 0.087550484 0.070339605
-2.5142365 1.9866028 0.092033587 0.062240191
-2.4556274 2.0163269 0.10091277 0.063621648
-2.4054565 2.0514832 0.10185095 0.069322243
-2.3497467 2.0819092 0.10839351 0.070841685
-2.2947998 2.1100159 0.11575421 0.072131261
-2.2218933 2.1195679 0.14387329 0.078185044
-2.1987305 2.1810913 0.1134152 0.074930124
-2.1342468 2.1968994 0.13281246 0.077157758
-2.0988922 2.2456055 0.11618336 0.073856838
-2.0438843 2.2709961 0.12421687 0.070792489
-1.9900818 2.2961426 0.13163348 0.078115046
-1.9503479 2.3422241 0.11807247 0.084838063
-1.8872833 2.3523865 0.1394306 0.082303606
-1.8570709 2.4136963 0.11059506 0.081024781
-1.8057861 2.4431763 0.11287268 0.072551429
-1.7530212 2.4687805 0.11829455 0.069070272
-1.7048187 2.5029602 0.11545666 0.062549077
-1.6503601 2.5270386 0.12215312 0.055424917
-1.6034546 2.5617065 0.11795099 0.057534106
-1.5462036 2.5812683 0.12846583 0.06247554
-1.4894867 2.5960083 0.14195079 0.065202899
-1.4354706 2.6168518 0.14973038 0.068879955
-1.3755035 2.6188049 0.17307287 0.074985415
-1.32547 2.6525879 0.16958481 0.078976974
-1.2828827 2.7174683 0.14076906 0.078899905
-1.2288361 2.7421875 0.14486116 0.076754078
-1.1775055 2.781311 0.1373139 0.072149411
-1.1187439 2.7904053 0.15385312 0.083520174
-1.065918 2.8327637 0.14416057 0.088129066
-1.0097656 2.8601074 0.1461615 0.090904891
-0.9473114 2.8291016 0.19196384 0.10172383
-0.94285583 3.1115112 0.13786596 0.078941427
-0.87913513 3.1238708 0.15247196 0.080475964
-0.81774902 3.1611633 0.14950198 0.080106229
-0.75509644 3.1892395 0.15294927 0.086488754
-0.69110107 3.2195435 0.15511197 0.086528584
-0.62562561 3.2605286 0.15053374 0.094622619
-0.55924988 3.2970276 0.14901119 0.10546074
-0.49108887 3.3407898 0.14306778 0.11472483
-0.42425537 3.348053 0.16061419 0.11577973
-0.34973145 3.4216003 0.13669091 0.11359733
-0.28538513 3.4026184 0.17031984 0.11896151
-0.21990967 3.3992004 0.19381706 0.11280178
-0.10891724 3.616333 0.086265743 0.072452933
-0.084686279 3.3985596 0.23743074 0.10320596
0.047668457 3.6720581 0.099085152 0.052890085
0.1282959 3.6950989 0.10905522 0.049597837
0.21133423 3.7233276 0.11609166 0.047829535
0.29238892 3.7380981 0.13109808 0.044744503
0.3764801 3.7597351 0.14230923 0.047340132
0.45779419 3.7713318 0.15893452 0.051464107
0.54211426 3.7880859 0.17290488 0.056113642
0.62869263 3.8063965 0.18625095 0.060821723
0.73410034 3.8606567 0.1814231 0.067151271
0.81938171 3.8669739 0.20168117 0.066420846
0.93843079 3.938324 0.18911067 0.060490798
0.97932434 3.8478394 0.25892079 0.062366847
1.0825195 3.8793335 0.26714146 0.052919645
1.2740021 4.0625305 0.20184435 0.035848774
1.4374542 4.1808167 0.17024578 0.025772667
1.5536804 4.2080383 0.18389739 0.022058276
1.6709747 4.2328186 0.19908883 0.021440594
1.8006439 4.2702026 0.20921695 0.020042751
1.9609528 4.3462524 0.20251453 0.023453912
2.1146545 4.4048157 0.20483387 0.026053667
2.2345581 4.4074402 0.23347235 0.026964232
2.3383636 4.3886719 0.27116069 0.029030846
2.4897766 4.4244995 0.286208 0.028961414
2.8685608 4.7207031 0.19446264 0.023018999
3.0213776 4.7350769 0.22251138 0.025799068
3.3108521 4.892395 0.19456288 0.02936073
3.533493 4.9635315 0.20345673 0.034587104
3.7559509 5.0244751 0.21815856 0.036361866
3.8883362 4.9894714 0.27019209 0.034410626
4.3440247 5.2506409 0.21581632 0.041608993
4.6147461 5.3237915 0.23291808 0.038279183
4.8951721 5.3921204 0.25466314 0.035193298
5.2376862 5.5018005 0.26489833 0.052904695
5.7632446 5.7411194 0.2374765 0.061481997
6.1511536 5.8513489 0.25634098 0.058723461
6.60849 5.9938049 0.27056885 0.074952334
7.0895081 6.1364441 0.28920183 0.068677366
7.8139648 6.4236145 0.27397868 0.061537951
8.4022827 6.5937805 0.29789382 0.092536613
8.7781219 6.5993347 0.37262136 0.08127629
9.9085236 7.0592957 0.33941594 0.075397976
10.881027 7.3704529 0.35880888 0.093270451
11.947876 7.6983337 0.38690647 0.10718426
13.421509 8.204834 0.39415008 0.086418271
15.081024 8.7413025 0.42045808 0.08761587
16.877075 9.2772217 0.47300571 0.054064535
19.982742 10.362427 0.47326505 0.044237688
22.90123 11.237488 0.55293483 0.032875244
26.904831 12.458313 0.64900076 0.039062228
31.167542 13.625061 0.82278228 0.032167591
40.159241 16.464905 0.97839326 0.04355555
49.799561 19.174438 1.3251384 0.040632278
59.29483 21.465546 1.8682199 0.12667736
59.808075 20.415344 2.528244 0.095089093
0.40588379 -7.5053101 5.0124493 0.042574406
0.067077637 -7.6039124 4.9477973 0.048113719
-0.045455933 -8.4413452 5.2020297 0.069389783
-0.27900696 -7.6941528 4.8761315 0.044860903
-0.4574585 -7.5417786 4.7701831 0.055425674
-0.62452698 -7.7954102 4.8063674 0.043971691
-1.0102692 -9.0689087 5.1240087 0.070989557
-1.1031189 -6.9439087 4.3663621 0.025305569
-1.4157867 -6.967041 4.2752113 0.019481208
-1.9239655 -10.034088 5.1655841 0.012646045
-1.6357574 -6.2900391 3.9715254 0.013492122
-1.8813477 -6.9691162 4.1249418 0.013680542
-1.931778 -6.3696594 3.9016092 0.018860091
-2.0733185 -6.3576355 3.8503025 0.018922511
-2.1399536 -6.0028992 3.7051919 0.030903185
-3.0367508 -9.1706238 4.4987411 0.017046425
-2.6075745 -6.2009888 3.613977 0.021444293
-2.6262665 -5.7853699 3.4624729 0.031715736
-2.9371185 -5.9010315 3.3934114 0.025933016
-5.3145599 -11.983582 4.6843262 0.014370828
-4.744194 -9.8076782 4.1218987 0.064147733
-4.7037354 -9.1618042 3.9079673 0.079409957
-4.2217026 -7.5524597 3.5126805 0.086544879
-4.6760254 -8.1419678 3.5553815 0.037294455
-5.3161163 -9.0569153 3.6449447 0.084650986
-6.5078888 -10.979462 3.8893158 0.041024089
-5.3164444 -8.2010193 3.3368845 0.048103109
-5.392868 -7.9600525 3.2206321 0.063639686
-5.2601471 -7.3670959 3.0558248 0.099192888
-6.2562408 -8.6948547 3.1566997 0.062050745
-6.8863983 -9.3270264 3.1439323 0.058896888
-6.3901978 -8.1735229 2.9127891 0.083032079
-7.1755524 -8.9924622 2.906836 0.043619689
-6.6102219 -7.82547 2.6966283 0.09204413
-7.2710037 -8.4085083 2.6509452 0.078001454
-7.6668777 -8.5968323 2.5627084 0.050422277
-8.1925354 -8.9268799 2.4748578 0.087452367
-8.6124496 -9.0901184 2.3659749 0.085406072
-8.3421097 -8.427063 2.2232449 0.068855479
-9.3165665 -9.2075806 2.1216202 0.06645719
-9.117363 -8.6459656 1.9870614 0.08217857
-9.7651367 -9.0015259 1.8551018 0.055206027
-9.9234695 -8.8268127 1.7203044 0.058999751
-10.236664 -8.8031616 1.5787858 0.060689956
-10.446609 -8.6797485 1.4408008 0.046578158
-12.138992 -9.8929749 1.2020862 0.075474821
-12.87606 -10.170532 0.9971332 0.056328993
-12.83905 -9.7606506 0.8476696 0.060971908
-11.48259 -8.2827759 0.83534527 0.077864841
-11.327545 -7.8421326 0.72274148 0.079915561
-11.242676 -7.4746704 0.60861862 0.084002063
-11.655701 -7.4850159 0.43122479 0.081010699
-11.807251 -7.2931213 0.28419733 0.082257599
-11.329819 -6.671814 0.23523451 0.093842588
-11.16291 -6.2885437 0.14758459 0.10297465
-10.472931 -5.5921936 0.16007033 0.10566723
-9.8365402 -4.9660645 0.17779903 0.099387363
-9.4199295 -4.5023499 0.16571157 0.084540464
-9.1921005 -4.1670227 0.12317151 0.095603436
-8.7784958 -3.74823 0.1279723 0.088458434
-8.4862823 -3.4146729 0.11428637 0.085166685
-8.1706238 -3.0831604 0.11170799 0.073261455
-7.8799896 -2.7810364 0.110177 0.068456732
-7.7311249 -2.5578613 0.078319266 0.064578533
-7.5214386 -2.3180237 0.06648799 0.061034147
-7.3314667 -2.0964661 0.053404778 0.06383954
-7.1529846 -1.8874817 0.040278643 0.052456871
-6.9278717 -1.6725159 0.045652602 0.048807867
-6.5072784 -1.4017944 0.1159577 0.045937557
-6.5206757 -1.2876587 0.056051467 0.044248506
-6.3872833 -1.1282043 0.043214776 0.042914599
-5.8931198 -0.87734985 0.15621753 0.050098572
-5.9583817 -0.7885437 0.082791537 0.045544885
-5.8799667 -0.6633606 0.059321858 0.046396855
-5.7511749 -0.53186035 0.05624054 0.040208984
-5.4396515 -0.37054443 0.12478754 0.037675589
-5.571228 -0.29782104 0.02643846 0.033407714
-5.4430313 -0.17953491 0.028524386 0.036355149
-5.3037262 -0.06552124 0.037695393 0.031572361
-5.2086182 0.037322998 0.031158553 0.027888425
-5.0897446 0.13922119 0.036071762 0.031404156
-4.989563 0.23464966 0.035051212 0.031883914
-4.9079285 0.32562256 0.027167309 0.033627041
-4.7885056 0.4152832 0.03775309 0.03721166
-4.6914368 0.50036621 0.039676651 0.044639904
-4.5810318 0.58013916 0.05053173 0.055246919
-4.4193115 0.65536499 0.087955691 0.069596365
-4.4103088 0.73422241 0.050337777 0.071687356
-4.3077316 0.80480957 0.061469063 0.073138192
-4.2573318 0.87710571 0.046565998 0.075384974
-4.1669617 0.94406128 0.053315744 0.07590352
-4.1003418 1.0112 0.048409689 0.078089371
-3.9879456 1.0689697 0.070134506 0.092506379
-3.9319 1.1332397 0.061274514 0.097039551
-3.7936935 1.1784058 0.10172365 0.10322338
-3.8119888 1.2555237 0.049977649 0.10204516
-3.7598572 1.3165894 0.04031061 0.099397048
-3.6842499 1.3687439 0.046493519 0.091162309
-3.6125412 1.4212341 0.050421223 0.080762535
-3.5472107 1.4729919 0.051537737 0.076299027
-3.466713 1.5184021 0.063215241 0.074472956
-3.3736191 1.5563049 0.084869362 0.084060319
-3.3227844 1.6080017 0.078508236 0.087855294
-3.2599792 1.6547241 0.080471493 0.099052973
-3.2067413 1.7023926 0.077161767 0.10275542
-3.0052719 1.6769714 0.18537386 0.095210038
-3.0156708 1.7522278 0.13593885 0.10505549
-2.9335175 1.7805786 0.15680704 0.088117339
-2.9628601 1.8700867 0.089751221 0.086102918
-2.9140091 1.9152527 0.084887482 0.084625363
-2.8550415 1.9529419 0.088899113 0.063427649
-2.7921448 1.9884338 0.095821954 0.062250707
-2.7428741 2.0310974 0.092038609 0.06327948
-2.6632385 2.050354 0.11600945 0.064006783
-2.6082611 2.0862732 0.11848685 0.073342741
-2.5380707 2.1086121 0.13593647 0.090976797
-2.4887848 2.1469727 0.13397118 0.091769122
-2.4416809 2.1883545 0.12899253 0.093444936
-2.388092 2.2210999 0.1320084 0.098647945
-2.343338 2.2637939 0.12478563 0.10146765
-2.2573547 2.2605591 0.1641155 0.096021034
-2.2069092 2.2947083 0.16431876 0.089105397
-2.1253662 2.2892456 0.20277233 0.088480681
-2.1358185 2.4001465 0.12785144 0.071934365
-2.0888519 2.4395142 0.12268361 0.073796883
-2.031311 2.4655762 0.13030048 0.071115717
-1.9863892 2.5085144 0.12156376 0.064316526
-1.9305573 2.5345764 0.12805624 0.066112429
-1.874115 2.5596924 0.13519509 0.068108067
-1.8171082 2.5820312 0.14417167 0.070629664
-1.759903 2.6032715 0.15377171 0.072682276
-1.7080688 2.6365662 0.15314098 0.072776996
-1.6628723 2.6795349 0.14335759 0.076327451
-1.6086426 2.7115784 0.14411695 0.083685175
-1.5540771 2.7390137 0.14782687 0.086374201
-1.5018005 2.7730103 0.14618392 0.092981838
-1.4447327 2.7938232 0.154759 0.096073449
-1.3883209 2.818512 0.16044803 0.10141259
-1.3086548 2.7580261 0.23070461 0.10459831
-1.2796783 2.8848267 0.15838082 0.097777054
-1.2234192 2.9125977 0.16131158 0.096274272
-1.1570892 2.89505 0.19772249 0.089872457
-1.1170349 3.0236816 0.12776859 0.083310686
-1.0549469 3.0344543 0.14349729 0.080103345
-0.99746704 3.078064 0.13565713 0.073761486
-0.98573303 3.3058777 0.13867481 0.13477631
-0.91853333 3.3206482 0.15293176 0.13612665
-0.85122681 3.3033142 0.18664832 0.14376053
-0.78456116 3.2504272 0.24171215 0.13348548
-0.72062683 3.4996338 0.11117312 0.12536004
-0.65406799 3.3605652 0.21855658 0.13875484
-0.58886719 3.3548584 0.24386495 0.12361809
-0.50457764 3.6369019 0.099639259 0.073810145
-0.42749023 3.6929321 0.090882383 0.064851157
-0.35620117 3.6906433 0.11567374 0.058372505
-0.27853394 3.7301331 0.11684544 0.055849757
-0.20259094 3.752655 0.12764555 0.056953579
-0.12284851 3.7772522 0.13824958 0.059487473
-0.047912598 3.777832 0.16176027 0.062877156
0.030044556 3.799469 0.17323881 0.067285597
0.1181488 3.8471069 0.1719442 0.091445677
0.20077515 3.8672485 0.18545753 0.090383001
0.2918396 3.909729 0.18783194 0.084332339
0.34179688 3.818512 0.25845554 0.095760956
0.49966431 4.0527649 0.16478305 0.052111313
0.59684753 4.0914001 0.17082445 0.03983403
0.71864319 4.1856995 0.15048759 0.030442912
0.80935669 4.1893005 0.1753283 0.024872638
0.89884949 4.1914062 0.20054941 0.024506735
1.0113068 4.2381592 0.20545726 0.035527378
1.1535645 4.3389893 0.18642214 0.042962521
1.2836304 4.4035034 0.18542126 0.050902713
1.3660278 4.3716431 0.22810856 0.052140102
1.4742737 4.387207 0.24966517 0.045462623
1.7082214 4.6081238 0.18430772 0.031774793
1.849884 4.6602173 0.19313779 0.02750914
1.9989319 4.7149658 0.20220257 0.026321618
2.1790466 4.8087769 0.19656099 0.030620374
2.34729 4.87677 0.20264687 0.034001995
2.5543823 4.9837646 0.19608702 0.036720894
2.7289734 5.039093 0.21083951 0.031998347
2.9108734 5.0940552 0.22749209 0.030075885
3.1847992 5.2530518 0.20768452 0.025359122
3.3902588 5.3145752 0.22624384 0.025569778
3.5977478 5.3692017 0.24905001 0.035919756
3.835144 5.4465637 0.26621684 0.038982712
4.2343597 5.6816406 0.23392698 0.033180848
4.5362854 5.7976379 0.2448791 0.040831804
4.8852386 5.9415283 0.25147301 0.046712987
5.288147 6.1222229 0.25038081 0.055637583
5.4307251 6.0469971 0.32926312 0.051628254
6.173172 6.4907532 0.26300922 0.061373398
6.4358215 6.4911804 0.32816449 0.065384902
7.2342377 6.9161682 0.2856437 0.036494117
7.771759 7.0954285 0.31686258 0.048943505
8.5007935 7.3972473 0.3257055 0.037664201
9.2814331 7.6984253 0.34693369 0.054604579
10.304535 8.1391907 0.3484394 0.055078391
10.675873 8.094696 0.46225157 0.048915412
14.410187 9.809845 0.40443537 0.032293014
15.770828 10.242828 0.48805839 0.031669274
17.433975 10.7948 0.57686633 0.034510218
21.267365 12.444977 0.57389641 0.027352359
24.141251 13.429138 0.70818114 0.023625623
28.418747 14.989929 0.85456866 0.012746438
35.105713 17.517181 1.0345554 0.016473321
46.243317 21.770966 1.3081795 0.035689458
56.918884 25.358917 1.8297933 0.074166127
66.051056 27.872467 2.5693803 0.11650339
0.52180481 -7.5541992 5.4022293 0.034067418
0.33174133 -7.4924316 5.3222008 0.043673445
0.12947083 -7.2663269 5.1749434 0.059314039
-0.028320312 -7.3995361 5.1787958 0.042015929
-0.1947937 -7.4973755 5.1660581 0.048689079
-0.3460083 -8.0886536 5.3471212 0.040502146
-0.52557373 -8.3309021 5.3851342 0.019652139
-0.71435547 -6.9239197 4.7867265 0.063168831
-0.87686157 -7.1220398 4.8123336 0.031608578
-1.0492096 -7.4075928 4.8680634 0.023599112
-1.374115 -9.7939148 5.6822591 0.014876865
-1.3658142 -7.1355591 4.663589 0.022917531
-1.824173 -9.9286804 5.5909562 0.010356875
-1.9726105 -9.3586426 5.3240237 0.033331383
-1.7427216 -6.4086914 4.2629738 0.028348092
-1.9145203 -6.5691528 4.268856 0.020384772
-2.0248871 -6.3591614 4.1517038 0.024188297
-2.109024 -6.0664673 4.0110035 0.018972332
-2.3695679 -6.5797424 4.1228366 0.022951424
-2.7181854 -7.3515625 4.305027 0.018596729
-2.5764313 -6.2240295 3.9157591 0.019936424
-2.8496246 -6.6591492 3.9921944 0.042148687
-3.0481644 -6.7872925 3.9743755 0.024566719
-5.4351501 -13.313507 5.6977897 0.052993659
-3.6900177 -7.6731567 4.0990396 0.08061254
-7.0937271 -16.034485 6.1867294 0.027757294
-8.1076889 -17.593933 6.4437432 0.014541622
-8.9590836 -18.637268 6.5544305 0.01673845
-4.1360168 -7.0284424 3.6901584 0.035688583
-4.318512 -7.0406799 3.6301723 0.058626618
-4.4287796 -6.9031067 3.5363812 0.052403077
-4.7689514 -7.2134399 3.5371838 0.032182522
-4.7590332 -6.8508301 3.3966112 0.051187739
-4.7665405 -6.5473938 3.2729406 0.063055284
-5.0424805 -6.7093201 3.2368298 0.057529073
-5.7024612 -7.4682312 3.2986617 0.065020226
-5.8772888 -7.4165039 3.2132804 0.057039347
-6.9477844 -8.6828918 3.3267059 0.044055063
-6.4804001 -7.6646423 3.0890174 0.046373267
-6.6046295 -7.5204163 2.9838326 0.041183349
-6.7868729 -7.4564819 2.8890324 0.044129729
-8.3722916 -9.1684265 2.9883156 0.023933647
-8.0035934 -8.3644104 2.7987223 0.020284636
-8.4275818 -8.5358276 2.7070882 0.029455094
-8.7036133 -8.5227966 2.5955477 0.042516354
-9.0924683 -8.6220703 2.4865394 0.045552384
-9.6251755 -8.8590698 2.3785598 0.054801185
-9.1893921 -8.0817261 2.2232103 0.049894743
-10.851395 -9.406189 2.1288242 0.045872245
-11.444267 -9.6139221 1.9833122 0.054494031
-11.214828 -9.0523987 1.8360636 0.042777453
-12.494003 -9.833374 1.6610522 0.057246357
-12.279732 -9.2805481 1.5101743 0.048959251
-12.630112 -9.2169495 1.3428642 0.049068544
-12.769638 -8.9744263 1.1823409 0.052825514
-13.298386 -8.6784668 0.84057933 0.039128065
-12.88176 -8.0446472 0.73277146 0.057566237
-12.991989 -7.7946472 0.5781948 0.055288155
-13.09845 -7.5420837 0.42336157 0.05730566
-13.294464 -7.3518372 0.25875932 0.059006706
-12.775002 -6.7286682 0.19500227 0.065360986
-11.974258 -5.9725342 0.18716879 0.064803801
-11.28215 -5.3196106 0.18013999 0.054222241
-10.5681 -4.6929626 0.19343147 0.057690822
-10.422836 -4.3917847 0.11726008 0.060316533
-9.8830261 -3.9111633 0.12332056 0.067960031
-9.5207062 -3.5368958 0.10341428 0.076368891
-9.1107635 -3.1618652 0.10263418 0.080698676
-8.7542343 -2.8312988 0.099534266 0.084142238
-8.598465 -2.5979309 0.056645151 0.079160579
-8.3698425 -2.3451843 0.035061598 0.076202624
-8.02565 -2.0617371 0.047561884 0.069126815
-7.7815094 -1.828949 0.041184664 0.060762864
-7.5915833 -1.6227722 0.024035579 0.054684751
-7.2448959 -1.3835449 0.05749917 0.052961078
-7.1276703 -1.217865 0.028061634 0.048133418
-6.767067 -0.99655151 0.075420976 0.033798318
-6.6425323 -0.84631348 0.055930976 0.032649968
-6.4927216 -0.6947937 0.046376828 0.033346049
-6.2522583 -0.53344727 0.070527792 0.031771883
-6.1789856 -0.40975952 0.041230682 0.033197116
-6.1051178 -0.28964233 0.013670096 0.033125676
-5.9039078 -0.15423584 0.032961138 0.033111833
-5.7696304 -0.034881592 0.031225212 0.037562758
-5.6651154 0.075531006 0.020894775 0.036263593
-5.4918442 0.18759155 0.039080147 0.037016559
-5.3857422 0.2890625 0.033451326 0.036072508
-5.2762222 0.38668823 0.031027086 0.03330889
-5.1247101 0.48144531 0.04793549 0.034641292
-4.9977798 0.5710144 0.056641463 0.033728063
-4.8539352 0.65310669 0.076319098 0.043083891
-4.7744293 0.73498535 0.068184137 0.042524077
-4.7313461 0.81820679 0.043445352 0.041938104
-4.6295547 0.89349365 0.047917251 0.040905178
-4.5412064 0.96707153 0.047276024 0.038899802
-4.4162827 1.0335083 0.065951109 0.045345806
-4.358078 1.1059875 0.052580599 0.049770012
-4.2531433 1.1687622 0.064202547 0.059069488
-4.2051544 1.2394714 0.047021989 0.062995702
-4.1337128 1.3034668 0.043269519 0.066189744
-4.0629883 1.366272 0.039691929 0.06694898
-3.971283 1.4212952 0.049072985 0.066046678
-3.8463745 1.4624329 0.079969756 0.066899158
-3.8057327 1.5274658 0.06180656 0.065535687
-3.6907196 1.5654907 0.089876167 0.070082203
-3.6161499 1.6153259 0.09408199 0.072718501
-3.5700378 1.6743469 0.081054203 0.073575936
-3.3626862 1.6633911 0.17474696 0.090001933
-3.3737335 1.7435913 0.12545298 0.082150131
-3.3832092 1.823761 0.076672547 0.077722587
-3.3333054 1.8784485 0.066985361 0.080610693
-3.2657776 1.9208069 0.071403138 0.074569911
-3.1951981 1.9623108 0.077440731 0.07174509
-3.1242676 1.9993286 0.085993998 0.078076735
-3.0379486 2.024292 0.10763871 0.075845242
-2.9769135 2.0636597 0.110471 0.083115585
-2.9009857 2.0929871 0.12501153 0.09194804
-2.8420105 2.1312256 0.12730692 0.093507364
-2.8016815 2.184021 0.11345397 0.099413805
-2.7352295 2.2146301 0.12290333 0.10544682
-2.6895447 2.2623596 0.11386476 0.10234274
-2.5814362 2.2522888 0.16359302 0.10892054
-2.5550537 2.316803 0.13664827 0.10109328
-2.5105591 2.3629761 0.12756774 0.096222766
-2.4799957 2.4258728 0.10297154 0.086096823
-2.4128571 2.449646 0.11583637 0.077569246
-2.3520813 2.4793091 0.1225314 0.064775944
-2.2926636 2.5084839 0.12882468 0.059180751
-2.2376404 2.5431519 0.13001761 0.060745306
-2.1738281 2.5646057 0.14233682 0.062337369
-2.1149292 2.5931396 0.14838383 0.064649947
-2.0626984 2.6295471 0.14700636 0.065203682
-2.0065002 2.6593933 0.15093443 0.065448068
-1.960907 2.7081604 0.13931867 0.069132149
-1.8948364 2.7203674 0.15732297 0.06789659
-1.8559875 2.7833252 0.1343486 0.070708476
-1.7887573 2.7934875 0.15370831 0.076713972
-1.7376404 2.8308411 0.15050694 0.079084016
-1.6809998 2.8641663 0.15164468 0.082675688
-1.6237793 2.8928833 0.15566561 0.087175004
-1.5778046 2.9529724 0.13638887 0.0882608
-1.5256958 3.0001526 0.12704381 0.092773095
-1.4637909 3.0216675 0.13669369 0.090418577
-1.411438 3.0769958 0.12219998 0.087169632
-1.3449402 3.0801392 0.14440663 0.088299021
-1.2901611 3.132019 0.13257904 0.091130912
-1.2265625 3.1525574 0.14288493 0.095973976
-1.1633453 3.1733704 0.15270837 0.10059905
-1.1067657 3.2392883 0.13253386 0.11268201
-1.0409088 3.2445068 0.15250154 0.13417153
-1.0420837 3.6035156 0.090807781 0.061367314
-0.97125244 3.6505127 0.088163123 0.0540355
-0.89842224 3.6545105 0.11022899 0.047206551
-0.82736206 3.6969604 0.11002979 0.042224653
-0.75395203 3.7121887 0.12578461 0.042706542
-0.68029785 3.7330322 0.13839874 0.048034705
-0.60690308 3.7471924 0.15457663 0.051426534
-0.53251648 3.7739258 0.16388364 0.057409409
-0.4566803 3.7993774 0.17429753 0.070118934
-0.38072205 3.8321838 0.18055077 0.085096188
-0.29959106 3.8882751 0.17525263 0.094250299
-0.23191833 3.8407288 0.22374983 0.096879691
-0.16026306 3.8145752 0.26138216 0.09754692
-0.07093811 3.8927307 0.24604292 0.093922302
0.048858643 4.105072 0.16507347 0.057111241
0.13923645 4.1410522 0.17352362 0.046040688
0.22540283 4.1559753 0.19230945 0.040548578
0.31297302 4.1691284 0.21243614 0.036415193
0.42268372 4.2539978 0.19922453 0.032595228
0.5216217 4.2949524 0.20711273 0.03364389
0.63092041 4.3582153 0.20563453 0.034524385
0.73651123 4.4019165 0.21381527 0.032034762
0.85032654 4.4551697 0.21907789 0.03142418
0.99845886 4.585144 0.19199437 0.027758138
1.1157837 4.6280518 0.20383328 0.025504529
1.2369537 4.6717224 0.21629386 0.026163541
1.4152222 4.8238525 0.18562262 0.027416654
1.5540771 4.8831177 0.19451003 0.031318985
1.7022705 4.9526978 0.20032804 0.034156136
1.8309784 4.9772644 0.22508208 0.035876445
1.9036407 4.9045105 0.28685465 0.036810968
2.2165222 5.2170105 0.20691612 0.036242522
2.3778839 5.2695618 0.22546437 0.036865894
2.5775146 5.3727417 0.22721687 0.046733197
2.7872009 5.4724121 0.23366681 0.053820036
2.9117432 5.4478455 0.28336561 0.056921419
3.2808838 5.7378845 0.23140122 0.039792616
3.5226746 5.8433838 0.24348499 0.047551237
3.8140869 5.9940796 0.24491882 0.057575971
4.1673584 6.2001953 0.23372877 0.042200647
4.4766846 6.3362122 0.24791312 0.052841678
4.8343201 6.5076599 0.25637922 0.065271899
5.0462341 6.5112915 0.31437096 0.069084637
5.6482697 6.8943481 0.27682123 0.049808159
6.0734253 7.0757141 0.29827613 0.075167365
6.3174896 7.0658875 0.37184817 0.086821921
7.2008362 7.6231079 0.31844634 0.073548727
7.6845093 7.7818298 0.36762992 0.11522127
8.4026184 8.1183777 0.38619259 0.071590893
9.4657135 8.6908264 0.37354898 0.081001751
10.463715 9.1647034 0.39525113 0.072167277
11.579422 9.6724854 0.43082377 0.063914128
12.774384 10.192902 0.48098105 0.068882622
14.833862 11.248047 0.48288742 0.060721662
16.265854 11.79538 0.58239478 0.037479427
19.363754 13.330444 0.61152995 0.028524309
22.782822 14.925415 0.69528264 0.023895349
25.764969 16.115692 0.87320113 0.0092913732
32.502655 19.283142 1.023239 0.035019819
40.869797 23.027527 1.3073106 0.035431702
57.897507 29.566284 2.4449863 0.10135687
-0.083786011 -7.6958923 5.6270547 0.058627404
-0.26159668 -7.7650146 5.6014843 0.057993758
-0.46560669 -7.1661682 5.2828441 0.053999111
-0.63401794 -7.0797729 5.1934791 0.047350578
-0.79920959 -7.1186218 5.1582646 0.048738487
-0.95455933 -6.8331299 4.9877033 0.034460612
-1.1053772 -6.7245483 4.893786 0.024264161
-1.2829285 -6.9663696 4.9405756 0.036854938
-1.4524994 -7.04599 4.9205446 0.027421208
-1.7905273 -7.1437988 4.8539495 0.028709842
-1.9931793 -7.3765869 4.888011 0.020982148
-2.0946198 -7.0176086 4.7018304 0.030623963
-2.8937149 -10.123474 5.7694759 0.044738989
-2.9412842 -9.3166809 5.4089518 0.047157168
-2.6899414 -7.443634 4.6897583 0.025739139
-2.4043427 -5.7414856 4.0547233 0.031771474
-2.5359955 -5.7218933 4.0028429 0.031494934
-3.3525238 -7.8926697 4.6634264 0.035662115
-3.485733 -7.7280884 4.5483885 0.039876323
-5.640831 -13.231201 6.19384 0.013670525
-4.6431808 -9.801178 5.0525117 0.048905943
-4.9817581 -10.061432 5.0506544 0.040589977
-5.3638535 -10.380219 5.0590434 0.080159247
-5.6097336 -10.377686 4.9745622 0.067096785
-5.4356384 -9.4692993 4.6410418 0.028042136
-4.669548 -7.4448242 4.0262427 0.025200792
-5.162796 -8.0205383 4.1067128 0.051890891
-4.9241867 -7.1998291 3.8324542 0.021731513
-6.1295013 -8.973999 4.1878123 0.016344039
-5.6084137 -7.6960144 3.8116927 0.062329352
-5.202774 -6.7000732 3.5182014 0.01915776
-5.6058884 -7.0264282 3.5201716 0.041588601
-5.2811584 -5.9796448 3.1753159 0.047087207
-5.9783173 -6.6849365 3.2395411 0.032204874
-8.6305084 -9.9038086 3.7188811 0.058144566
-7.8719635 -8.5507812 3.3910751 0.063273907
-7.4214935 -7.666748 3.160615 0.066315681
-7.769455 -7.7777405 3.0855472 0.060979433
-9.009903 -8.8779907 3.1297429 0.095325179
-8.8466492 -8.3624573 2.9590197 0.062349763
-9.0296021 -8.2355042 2.8365369 0.063452423
-9.658844 -8.5635681 2.755775 0.058613919
-10.263428 -8.8311462 2.6565332 0.05058106
-11.861359 -10.009949 2.6050625 0.058346618
-11.366623 -9.1829224 2.4132071 0.059823211
-11.500427 -8.9617615 2.2645838 0.061136659
-11.668541 -8.7620544 2.1127441 0.063524224
-11.445145 -8.2444153 1.9601595 0.079327427
-13.548233 -9.5851135 1.7950631 0.061505567
-13.790451 -9.3987732 1.6207838 0.065227531
-14.269073 -9.3816528 1.4359177 0.057222709
-14.98172 -9.5158997 1.2330899 0.031670958
-13.255264 -7.6430359 1.0145856 0.033266056
-13.60807 -7.5413818 0.83596504 0.024815841
-14.478134 -7.7460327 0.60520279 0.074119657
-14.599503 -7.4832458 0.43777141 0.074325398
-14.950607 -7.3453674 0.24174215 0.067210577
-14.431824 -6.7365417 0.1528801 0.070706442
-13.370224 -5.8826599 0.15349594 0.069895551
-12.129257 -4.9952698 0.20574404 0.092710175
-11.703712 -4.54599 0.15526654 0.084635302
-11.227943 -4.0923157 0.12145832 0.088107824
-10.712303 -3.6485901 0.10711482 0.094269998
-10.177589 -3.2239075 0.10876873 0.097774975
-9.6967239 -2.8443604 0.11110809 0.10332081
-9.5302048 -2.5983276 0.057101406 0.097661942
-9.3136826 -2.3427124 0.017354293 0.094472565
-8.7108536 -1.9780579 0.072596818 0.078745089
-8.5956726 -1.7807922 0.021617454 0.070579
-8.3217392 -1.5505066 0.015284698 0.063145742
-7.9495239 -1.3027039 0.037920393 0.059762891
-7.6834869 -1.0953369 0.039254222 0.055036478
-7.3453217 -0.88500977 0.066613704 0.058388602
-7.2111435 -0.72680664 0.040868435 0.058937971
-6.9282379 -0.54953003 0.062783152 0.054924078
-6.8124924 -0.40826416 0.037879739 0.056080487
-6.6921539 -0.27203369 0.01705364 0.05231721
-6.4313202 -0.12231445 0.043513089 0.047794197
-6.321228 0.001739502 0.024409208 0.043481432
-6.1543732 0.125 0.02745739 0.04112019
-5.9742889 0.24346924 0.037777454 0.036879551
-5.8340149 0.35299683 0.037102491 0.035603255
-5.6678314 0.45779419 0.04863992 0.036270812
-5.4909592 0.55725098 0.066850089 0.035169341
-5.2833786 0.64929199 0.10047008 0.038374331
-5.2737427 0.74020386 0.058214448 0.036892686
-5.1548615 0.8260498 0.060490154 0.031470463
-5.0675812 0.91213989 0.050332211 0.028898496
-4.9484711 0.99057007 0.056238197 0.024164088
-4.8213959 1.0639038 0.067681804 0.023784067
-4.7151184 1.1367798 0.071218625 0.024324343
-4.5546112 1.1967468 0.10214688 0.028301245
-4.58564 1.2884216 0.04293289 0.028598674
-4.4909439 1.3555298 0.04464712 0.030359801
-4.3889618 1.4170227 0.051912565 0.033056378
-4.2656174 1.4703674 0.071522489 0.034912597
-4.1457901 1.5204773 0.091359273 0.041132737
-4.0876465 1.5843201 0.080260888 0.046127591
-3.9927521 1.6360168 0.089479096 0.056730092
-3.7820969 1.6421204 0.16675961 0.082258582
-3.7603302 1.7132874 0.13760817 0.07391949
-3.7044601 1.7712708 0.12831962 0.07311184
-3.7262344 1.8617249 0.072171815 0.068960123
-3.6421509 1.9072571 0.08000458 0.061402909
-3.5729294 1.955658 0.080550678 0.057071701
-3.4777756 1.9908752 0.097861059 0.052736718
-3.4080887 2.0350342 0.10063554 0.057398736
-3.3248138 2.0723267 0.11213804 0.065406851
-3.2532959 2.1116333 0.11803436 0.071865827
-3.1946487 2.157196 0.11560249 0.073657021
-3.125473 2.1949158 0.12129581 0.076864868
-3.0508347 2.2290955 0.13080464 0.079422072
-2.9406204 2.2326355 0.17009769 0.076073758
-2.924057 2.3071594 0.13595639 0.075585485
-2.8100128 2.301178 0.18162249 0.075287074
-2.8351746 2.4137573 0.11113238 0.070329502
-2.7627106 2.4411926 0.12301743 0.072104163
-2.7086945 2.4864502 0.1182909 0.073914118
-2.6506042 2.5246582 0.11883187 0.076639511
-2.5820618 2.5525818 0.128767 0.082405269
-2.5113678 2.5763245 0.14169858 0.083755687
-2.4408875 2.5982666 0.15543006 0.085582033
-2.3919373 2.6442566 0.14799248 0.087188184
-2.3233948 2.6658325 0.16103052 0.092209972
-2.2720642 2.7085571 0.15610574 0.094912052
-2.2197418 2.752533 0.15076528 0.093835689
-2.1385498 2.7500305 0.18140732 0.10798074
-2.1047668 2.8208313 0.15435551 0.1067708
-2.0180664 2.8051758 0.19409057 0.11650217
-1.9417572 2.8014526 0.22344133 0.11724652
-1.9405518 2.9400024 0.1468948 0.09738154
-1.8803711 2.97229 0.15028404 0.092745557
-1.8338623 3.0281982 0.13562702 0.082330734
-1.7775574 3.0726624 0.13069914 0.084433168
-1.718338 3.1078491 0.1318786 0.082695328
-1.6468506 3.1104126 0.15546235 0.079968646
-1.5901184 3.152832 0.1515623 0.089335188
-1.5326996 3.197876 0.14637122 0.096651576
-1.4661255 3.2143555 0.16019115 0.11102773
-1.4140472 3.2834473 0.13948259 0.12231037
-1.3479919 3.3024597 0.15153548 0.12039626
-1.2757568 3.2972717 0.17919156 0.12487166
-1.2000122 3.2616882 0.22498807 0.11969275
-1.1586151 3.4285278 0.14547822 0.096963115
-1.0926208 3.4598389 0.15025827 0.083589129
-1.0845947 3.7429504 0.15212117 0.088040724
-1.0078583 3.7454224 0.17580031 0.093148388
-0.93612671 3.7828064 0.17982052 0.09896563
-0.86306763 3.8119507 0.1885222 0.10667197
-0.78898621 3.8539734 0.19084355 0.10944779
-0.71351624 3.8343506 0.22538087 0.10602659
-0.64068604 3.7791443 0.27734441 0.10984675
-0.56448364 3.8633118 0.25855142 0.10089326
-0.47619629 4.0628357 0.18423435 0.075954005
-0.39329529 4.1286316 0.17701933 0.072296783
-0.30726624 4.1858826 0.17515144 0.068731308
-0.22659302 4.1913757 0.19821379 0.068155453
-0.13769531 4.2312012 0.20618853 0.065745823
-0.040222168 4.31604 0.19371006 0.068092972
0.053024292 4.3704529 0.19547269 0.063781805
0.15582275 4.4444885 0.19017729 0.054688286
0.21110535 4.3126831 0.27558774 0.060028981
0.37823486 4.6150208 0.17323837 0.033592846
0.4851532 4.6650085 0.18151185 0.028811477
0.57550049 4.6561279 0.21473904 0.026350094
0.70809937 4.7727966 0.19678707 0.022266274
0.83699036 4.8619995 0.19175072 0.022388509
0.97149658 4.947998 0.19004579 0.023314385
1.0838776 4.972168 0.21309419 0.023362152
1.2371216 5.0839844 0.20397027 0.029177977
1.3972473 5.1956177 0.19707401 0.031364676
1.5359344 5.2487183 0.21342605 0.029060131
1.6786804 5.3020935 0.23086601 0.033306502
1.8381805 5.3812561 0.24026865 0.039892904
2.0764313 5.5905457 0.20762891 0.031142741
2.2644958 5.6923828 0.214261 0.034732327
2.2646332 5.4691467 0.32856277 0.035195991
2.6488037 5.8718872 0.24229924 0.036659192
2.8249817 5.9246216 0.2702122 0.046430845
3.1711121 6.2098389 0.23205535 0.040819645
3.401062 6.3088379 0.25290731 0.040345557
3.6529236 6.4232483 0.27263549 0.053927299
3.8485413 6.4523315 0.31840479 0.048875213
4.3365173 6.8365479 0.27346063 0.029638484
4.6773834 7.0101624 0.29034114 0.041127574
4.9480286 7.0830688 0.336779 0.040484909
5.5813599 7.5469055 0.29592264 0.03866788
5.8386841 7.5689697 0.36395416 0.039298769
6.5291138 8.0259094 0.34405348 0.036466945
7.1578217 8.3850098 0.35484013 0.040227417
7.7550507 8.6763611 0.39024624 0.033112522
8.461853 9.0405273 0.42217869 0.032085843
9.5115204 9.670166 0.42446369 0.032189347
10.38736 10.097839 0.47575548 0.037211861
11.475784 10.650726 0.52853984 0.023067513
13.633377 12.011444 0.49896264 0.048098162
15.054932 12.682922 0.59313858 0.038889099
17.345062 13.943024 0.65452302 0.031707287
20.521606 15.714203 0.72765666 0.027958717
24.02771 17.563965 0.86121655 0.024024924
29.499741 20.531281 1.0287838 0.031388231
37.38678 24.782654 1.2827986 0.031549208
56.813629 34.325378 2.3745158 0.085844778
-0.71868896 -7.4628296 5.67875 0.038582012
-0.87734985 -6.7203369 5.2794085 0.029309826
-1.0845337 -7.8007202 5.7209978 0.033309575
-1.2477722 -7.5516663 5.5518832 0.032263156
-1.4909058 -8.2634277 5.8086381 0.024368344
-1.5763245 -7.289917 5.3238611 0.024292378
-1.7192078 -7.0877686 5.183094 0.021945955
-1.9022675 -7.1963501 5.1753626 0.019547915
-2.090271 -7.3068848 5.1669302 0.023757344
-2.6702576 -9.3895264 5.9595637 0.0095201349
-2.2746124 -6.5946655 4.7726536 0.012799634
-2.6035461 -6.651947 4.6934185 0.014869776
-2.7981873 -6.7731323 4.6874738 0.017367469
-3.0353394 -7.0128479 4.7234731 0.020073893
-3.155777 -6.8728027 4.6184773 0.027224956
-3.4027863 -7.0945129 4.6426487 0.022618705
-5.1168747 -11.196136 6.0177093 0.037754621
-3.5279007 -6.5375061 4.3394489 0.02491658
-3.6866837 -6.5276794 4.2830243 0.021615468
-3.885437 -6.5977173 4.2511654 0.022901205
-4.0569916 -6.6130066 4.2022729 0.020553323
-5.9145813 -10.03656 5.2103095 0.05067344
-4.6314926 -7.0548096 4.2226882 0.020118933
-4.9048004 -7.2119446 4.2072134 0.033364885
-6.9279938 -10.438629 5.0676866 0.017677937
-4.6030045 -6.0398865 3.7522383 0.02775977
-5.0330429 -6.460083 3.8094423 0.028637255
-4.9959183 -6.1140137 3.6578155 0.033349819
-6.63414 -8.280365 4.1430268 0.011650267
-5.3859863 -6.1505432 3.5462303 0.02521991
-5.3266144 -5.8087769 3.4037859 0.03501182
-5.7799377 -6.1665649 3.4233408 0.029761419
-5.7726669 -5.9040222 3.3010809 0.029364713
-5.9838104 -5.9215088 3.2392516 0.038570978
-8.7535248 -8.9484863 3.7573185 0.0338604
-9.0868225 -8.9824829 3.6625218 0.015528484
-9.3734283 -8.9458008 3.5495472 0.017370749
-10.31176 -9.5948486 3.5456822 0.03840296
-10.944778 -9.8738403 3.467268 0.024937062
-10.423973 -8.9936829 3.2214901 0.031831667
-10.954285 -9.153595 3.1203709 0.041033402
-10.559769 -8.4493713 2.9160669 0.041831117
-11.912651 -9.3164062 2.8769786 0.032250207
-11.474838 -8.5994568 2.6808636 0.04241262
-11.788048 -8.5248108 2.5399034 0.042232782
-12.146278 -8.4769897 2.3965118 0.036689885
-13.027542 -8.8180542 2.2635098 0.038458869
-12.763519 -8.2797241 2.0940156 0.034229077
-12.536911 -7.7907715 1.9355187 0.038023204
-16.338684 -10.051086 1.739477 0.017306728
-22.922226 -13.935059 1.3852668 0.012156067
-23.759933 -13.894623 1.0826771 0.027806794
-23.08567 -12.909576 0.83590901 0.018491402
-16.978699 -8.8489685 0.94387609 0.010628292
-16.227676 -8.0489197 0.81193286 0.027539177
-16.199707 -7.6712646 0.63888764 0.031972658
-16.825378 -7.6317139 0.4075461 0.035554819
-16.996994 -7.3497009 0.21273015 0.037680794
-16.388763 -6.7069397 0.10780716 0.040492296
-14.758324 -5.6490173 0.14867912 0.043640677
-13.48259 -4.8082886 0.17426977 0.050146401
-12.886429 -4.2987366 0.12946245 0.048190061
-12.250458 -3.8051147 0.10581848 0.051155362
-11.646568 -3.3523254 0.09100768 0.055743545
-11.177483 -2.971344 0.065151662 0.051348146
-10.79731 -2.6372986 0.031782955 0.050634991
-10.463593 -2.3363037 -0.0013493544 0.048250362
-9.8982086 -1.9849854 0.019800035 0.048661582
-9.4874878 -1.7024231 0.021739686 0.044272222
-9.0087509 -1.4151306 0.044476584 0.042601384
-8.7299194 -1.1906433 0.029688673 0.039438613
-8.1143417 -0.91381836 0.10412437 0.044421911
-8.0766602 -0.76123047 0.042061873 0.042230193
-7.3913956 -0.51071167 0.15314309 0.046905275
-7.5802689 -0.4052124 0.036657162 0.044223644
-7.4334869 -0.25424194 0.012475559 0.045068845
-7.1768188 -0.09564209 0.022036498 0.042058818
-6.9750214 0.047454834 0.020454232 0.039686486
-6.7253571 0.18441772 0.038204968 0.03938251
-6.5536652 0.30984497 0.034911688 0.037227076
-6.3347244 0.4289856 0.050836615 0.03581303
-6.1370544 0.5402832 0.063322708 0.033516087
-5.7910156 0.64160156 0.13147154 0.037061702
-5.8507233 0.74707031 0.058679748 0.033441421
-5.7249756 0.84082031 0.05512445 0.035030231
-5.5825348 0.93157959 0.058704305 0.032125138
-5.4387665 1.0188293 0.064445063 0.029729443
-5.2983246 1.0997925 0.072148003 0.03431036
-4.9813919 1.1503601 0.15527643 0.040207725
-5.0989075 1.262085 0.059348866 0.031126464
-5.0391998 1.3464355 0.037619755 0.032117918
-4.9062271 1.4141846 0.04915921 0.036137801
-4.7301788 1.4677734 0.082474865 0.033318654
-4.597374 1.5249939 0.099156767 0.048258744
-4.5377731 1.5987244 0.082528383 0.053073812
-4.4025574 1.6483154 0.10378745 0.072102673
-4.1962585 1.6685486 0.16396274 0.083692789
-4.3015442 1.791687 0.066187173 0.070551492
-4.1947021 1.841095 0.077748805 0.069173791
-4.0775146 1.8838196 0.096153408 0.072730027
-3.9998245 1.9398193 0.094396621 0.047080152
-3.8897095 1.9781494 0.11251905 0.060168948
-3.7984924 2.0232239 0.12078836 0.07255052
-3.7193756 2.0694275 0.12431302 0.080275759
-3.6481323 2.1202698 0.12285199 0.089999124
-3.5728683 2.1650696 0.12572576 0.095988408
-3.5049286 2.2151489 0.12342133 0.096808292
-3.4128571 2.2457275 0.13914897 0.096415646
-3.2678986 2.2373657 0.19248557 0.10179964
-3.2672806 2.3243713 0.14855409 0.090003937
-3.2529297 2.4067078 0.11160912 0.092431225
-3.165802 2.4336243 0.12739076 0.086996064
-3.1041107 2.4792786 0.12501514 0.080980003
-3.0303574 2.5131226 0.13267255 0.087336168
-2.960144 2.5489197 0.13815665 0.10016364
-2.8788605 2.5719604 0.15378225 0.10763142
-2.8152618 2.611969 0.15481997 0.1069372
-2.7669525 2.664032 0.14450061 0.11335795
-2.6946869 2.6921692 0.15443373 0.11009269
-2.629303 2.7262268 0.15900433 0.11258309
-2.5668793 2.7627869 0.16125262 0.1096525
-2.5086517 2.8031311 0.16013849 0.10763594
-2.4001465 2.7771301 0.20973967 0.12224979
