# .PCD v0.7 - Point Cloud Data file format
VERSION 0.7
FIELDS x y z
SIZE 4 4 4
TYPE F F F
COUNT 1 1 1
WIDTH 1539
HEIGHT 1
VIEWPOINT 0.9497 0.000250154 1.385 -8.6478e-09 0.84784 1.38272e-08 0.530252
POINTS 1539
DATA ascii
9.6638117 -3.8493183 1.5519605
7.6443543 2.9802644 1.4114544
7.6432385 2.913415 1.3881686
7.6299739 2.8430016 1.3675692
7.650022 2.7847836 1.3450711
7.61518 2.7006879 1.3227401
7.6454329 2.6460528 1.3019552
7.6318097 2.5813208 1.2831471
7.6390338 2.5165143 1.262001
nan nan nan
nan nan nan
nan nan nan
nan nan nan
nan nan nan
4.2636175 1.0564095 1.2715169
4.3762021 1.0572491 1.260173
4.120028 0.95064741 1.2620783
4.1232243 0.92505389 1.2571492
4.135643 0.89478135 1.2474316
4.1468 0.86826909 1.2402557
4.1457205 0.84034914 1.2348346
4.1449943 0.80987871 1.2281706
4.1590686 0.78548557 1.2230656
4.1385565 0.74959469 1.2174367
4.1640296 0.72691578 1.2116653
4.1585588 0.69429159 1.2047901
4.1485248 0.66323519 1.2007264
4.1465664 0.63130784 1.1965724
4.167367 0.60548496 1.1882528
4.1906948 0.58756959 1.1824991
4.216053 0.55759972 1.1783565
4.1811876 0.52223438 1.1766266
4.1780148 0.48769438 1.1696744
4.1694398 0.46332762 1.1695101
4.1695137 0.43218648 1.1664428
4.1737113 0.39947265 1.1661206
4.1840849 0.37690315 1.160096
4.1952043 0.34646851 1.1551744
4.1775613 0.32109818 1.153758
4.1886015 0.28701365 1.1507272
4.2580709 0.26895988 1.1440434
4.4037604 0.24672076 1.1330054
4.4170694 0.22259116 1.1277632
4.4033742 0.18354177 1.1289465
4.4170156 0.15147384 1.1295478
6.5944853 0.20245132 0.96498334
7.286428 0.16062802 0.917135
7.2908721 0.11110166 0.90871119
7.2832489 0.064036056 0.90542579
7.2839446 0.0013357162 0.91039467
7.2762122 -0.047155607 0.91666961
6.8761892 -0.10638284 0.94172275
7.3619723 -0.16536094 0.90965605
7.2641473 -0.22272949 0.91284442
7.2669063 -0.27196413 0.92196536
7.2754855 -0.33865878 0.91864967
7.2637477 -0.40078834 0.91776514
7.2609706 -0.44692603 0.92215014
7.2240586 -0.51268995 0.92603111
7.2167735 -0.55775809 0.93413186
7.3383756 -0.63163978 0.92932367
7.3099332 -0.67506242 0.93208909
7.3074126 -0.74168795 0.94446778
7.300034 -0.80293256 0.94545007
7.3342886 -0.85273862 0.94982767
7.305634 -0.91757476 0.95862794
7.3153262 -0.9637472 0.96331382
3.349905 -0.38623887 1.2309268
3.267509 -0.39629585 1.2392342
3.2677522 -0.41846314 1.2403831
3.2768188 -0.43618959 1.2420952
3.2648144 -0.45794857 1.2479029
3.2492142 -0.47573823 1.2524316
3.2488465 -0.49796557 1.2567681
3.2446823 -0.5176568 1.2602448
3.2555871 -0.54266918 1.2645566
3.2473049 -0.5608449 1.2683408
3.253974 -0.58466011 1.2727462
3.2493615 -0.60317218 1.2762017
3.2596369 -0.62752247 1.2805557
3.2509828 -0.64468253 1.2858884
3.2523656 -0.66981256 1.2914789
3.2775502 -0.69802642 1.2947402
3.2725744 -0.71509838 1.3004042
10.381822 -3.0030966 1.0621924
nan nan nan
9.7336073 -2.9700692 1.1313322
nan nan nan
7.4765534 -2.3296297 1.2285833
10.988517 -3.6734309 1.172642
10.8684 -3.7342985 1.2046149
nan nan nan
nan nan nan
7.0844121 -2.4870017 1.3276982
nan nan nan
9.7727385 -3.7524981 1.3600757
9.7855129 -3.8443427 1.3892946
9.5993986 -3.850019 1.4191799
7.6136107 2.9894147 1.3101163
7.6054988 2.9182284 1.2871802
7.6327701 2.8645499 1.2652049
7.6160679 2.7901282 1.2432251
7.6316118 2.7304161 1.221765
7.6582274 2.6737781 1.2003889
7.638967 2.6010978 1.180805
7.601501 2.5184975 1.1626859
nan nan nan
nan nan nan
nan nan nan
4.3353586 1.154053 1.2351575
4.2730975 1.0997906 1.2298998
4.2599516 1.0614671 1.2223541
4.2683749 1.0334345 1.2137491
4.1692796 0.97396106 1.2129019
4.1270657 0.93212306 1.2066313
4.1351171 0.90296674 1.2003971
4.1270103 0.87109911 1.1944166
4.1498175 0.84612978 1.1860268
4.141438 0.81332773 1.1807642
4.1475568 0.78719091 1.1742048
4.154387 0.75729126 1.1685069
4.1485705 0.72749645 1.1630012
4.1745501 0.70102823 1.1567093
4.3558965 0.70953101 1.1382388
4.3535504 0.67911059 1.1333016
4.327775 0.64262712 1.1307048
4.3599172 0.62015718 1.1228753
4.3893609 0.58936745 1.1172795
4.3030701 0.5476253 1.1208888
4.1620517 0.49116886 1.1253911
4.1817942 0.46590891 1.1224995
4.1891518 0.44049129 1.1194074
4.1764975 0.41080093 1.1149589
4.1919999 0.38224864 1.1134404
4.1951346 0.35148811 1.1093904
4.1779766 0.32106286 1.107789
4.1965308 0.29231498 1.1043372
4.3100095 0.27252385 1.0923513
4.4114528 0.252056 1.0831467
4.4091873 0.22084425 1.0789214
4.4071569 0.18805668 1.0795566
4.4164481 0.15742211 1.0764388
4.3221917 0.12484008 1.0861336
6.7520485 0.16208662 0.86332548
7.2515926 0.11610083 0.82258439
7.2919083 0.05992496 0.81557012
7.2804379 -0.0024814585 0.81888461
7.2717371 -0.062521577 0.81490326
6.7377734 -0.10963948 0.86976516
7.2382059 -0.17185187 0.82203507
7.2407517 -0.22838719 0.82572293
7.2619886 -0.2895146 0.82163072
7.275805 -0.34659863 0.82849956
7.2566619 -0.39831147 0.82847834
7.2493472 -0.45421523 0.83408618
7.2250223 -0.51209134 0.83706999
7.224884 -0.56770045 0.84419441
7.1965499 -0.61717051 0.85053229
7.191021 -0.6720984 0.8522191
7.3119655 -0.74419075 0.84967542
7.3168674 -0.80613863 0.8534739
7.3063483 -0.86044347 0.86123729
7.3146272 -0.92048442 0.86706829
7.1690736 -0.9536401 0.88417697
3.2719951 -0.37765023 1.2013235
3.2766142 -0.39966702 1.2034509
3.2731504 -0.42072818 1.2067332
3.2541199 -0.43692058 1.2105443
3.2539716 -0.46048149 1.2153127
3.2501097 -0.48067287 1.2189708
3.2423067 -0.49913272 1.2222852
3.2421298 -0.51963878 1.226198
3.2295709 -0.53961551 1.2306018
3.2098079 -0.55475098 1.2363069
3.2745166 -0.59321117 1.235846
3.2661529 -0.61082351 1.2413521
3.2339725 -0.62402356 1.2480154
3.2554822 -0.65196395 1.2508913
3.2343626 -0.66866302 1.2572219
3.2787528 -0.70257604 1.2599202
3.292078 -0.72801834 1.2632397
3.3082671 -0.75750995 1.2694143
7.1231308 -2.0392857 1.0967135
7.1469417 -2.1087086 1.1107988
7.1669445 -2.1753507 1.1259711
7.2171683 -2.2509892 1.1407595
11.090432 -3.7435935 1.0175064
11.036359 -3.8224165 1.0476339
nan nan nan
7.2044044 -2.4943745 1.2140815
7.0980153 -2.5134735 1.2361889
9.8010702 -3.7012603 1.1971416
9.7877712 -3.7853673 1.2266791
9.7402992 -3.8557673 1.25652
9.6901531 -3.9203675 1.2867818
7.6215663 3.0162272 1.2087743
7.5883021 2.93241 1.1875234
7.6118536 2.8767982 1.1641414
7.6394973 2.8204219 1.1422315
7.6324339 2.7522886 1.121995
7.6475873 2.6915274 1.0995092
7.6516132 2.6249487 1.080158
7.6105814 2.5402098 1.0628738
nan nan nan
nan nan nan
nan nan nan
4.2965574 1.1488614 1.1870728
4.2683797 1.105883 1.1801631
4.2857261 1.0770544 1.1715331
4.2823548 1.0464244 1.1637949
4.240684 1.0040498 1.1602496
4.1226254 0.93712044 1.1598954
4.1149831 0.90474594 1.1550621
4.122252 0.87706631 1.1481297
4.1415186 0.84956306 1.1394279
4.1486387 0.82042247 1.1331022
4.143136 0.79116303 1.1272734
4.1499543 0.76120037 1.1216992
4.1557822 0.73390275 1.1152024
4.2168589 0.71466702 1.1056819
4.347321 0.71213549 1.0889488
4.3641624 0.68725288 1.0825262
4.3540397 0.65371919 1.0786537
4.363028 0.62448305 1.0722986
4.3728714 0.59001487 1.0684288
4.3649421 0.56313235 1.0658425
4.1574206 0.49481744 1.0791702
4.12219 0.45989323 1.0809662
4.1805758 0.44344148 1.0732321
4.1720419 0.41231015 1.0681159
4.1833482 0.38522735 1.0667274
4.1905041 0.35445058 1.0626537
4.1814303 0.32295683 1.0602281
4.1918893 0.29506662 1.0574728
4.2181087 0.2661922 1.0527399
4.4026179 0.25417918 1.0338901
4.4083786 0.22166978 1.0289497
4.4141865 0.19089837 1.0284477
4.4116445 0.15731648 1.0264918
4.2976141 0.1257223 1.039817
6.5053802 0.15514342 0.80519819
7.2785969 0.11938818 0.72821414
7.2870145 0.058394503 0.72360206
7.3074651 -0.0044481116 0.72434628
7.2589612 -0.06148573 0.72488809
6.8888574 -0.11515059 0.77028501
7.2652531 -0.17222871 0.72777057
7.2677155 -0.23299806 0.731534
7.2571635 -0.28953078 0.72999632
7.2311888 -0.34861952 0.74144471
7.2400575 -0.39882138 0.73921323
7.2483354 -0.45945567 0.74237442
7.2361903 -0.51490217 0.74448705
7.2357788 -0.57484317 0.75189579
7.1918612 -0.61917245 0.75878
7.1901083 -0.67832863 0.76234365
7.1925182 -0.73401505 0.76861835
7.1856704 -0.79351246 0.77306104
7.1787882 -0.85139775 0.78084028
7.1679325 -0.9043532 0.78782654
3.3583436 -0.37233067 1.1562544
3.2922106 -0.38440743 1.1655948
3.2734332 -0.40138495 1.1696497
3.258184 -0.42063215 1.1740595
3.2468634 -0.43929529 1.1777682
3.2427816 -0.46228868 1.1826663
3.2428565 -0.48324829 1.1860907
3.2118802 -0.49569336 1.191201
3.2311873 -0.52052718 1.1934023
3.2147937 -0.53953302 1.1982388
3.2105727 -0.5584988 1.2029278
3.2017775 -0.57835609 1.2072794
3.2359571 -0.6068784 1.2094803
3.2154026 -0.62305129 1.2152281
3.2250495 -0.64900893 1.2187711
3.2388258 -0.67452019 1.2229759
3.244946 -0.69709575 1.2276142
3.2427859 -0.71862978 1.2319262
3.27422 -0.7529211 1.2365289
3.2534456 -0.76607883 1.2431576
7.096602 -2.1063042 1.0215662
7.1015797 -2.1677294 1.036772
7.1181064 -2.231096 1.0526214
7.1094394 -2.2920926 1.0700786
7.128098 -2.3582275 1.086045
7.1425767 -2.422739 1.1026146
7.1055517 -2.4750578 1.1243536
7.1142602 -2.5404649 1.1430311
9.7952662 -3.7265849 1.063323
9.7929335 -3.8160536 1.0924869
9.7447863 -3.8885114 1.1234515
9.8079576 -4.0038838 1.1518331
7.606204 3.0328619 1.108201
7.6628699 2.9924445 1.0835738
7.6293092 2.9075203 1.0627244
7.5980825 2.8257384 1.042289
7.6024075 2.7611396 1.0217972
7.6399574 2.7086711 0.99913454
7.6285777 2.6371357 0.97967196
7.6585517 2.5789106 0.95860052
7.6402326 2.5116472 0.94311786
nan nan nan
nan nan nan
nan nan nan
4.2474976 1.1078639 1.1322783
4.3140588 1.0951111 1.1191546
4.3072305 1.0619521 1.1115015
4.2847371 1.0250703 1.1070244
4.1247716 0.94556445 1.1124609
4.1289048 0.91532016 1.1062441
4.1285357 0.88516241 1.0999047
4.1206603 0.85096896 1.0936168
4.1315951 0.82280552 1.0867608
4.1260805 0.79346091 1.0810791
4.1638999 0.77071679 1.0724266
4.1581235 0.74062395 1.0676194
4.1685858 0.70996332 1.0618496
4.3688574 0.72261912 1.0361586
4.3664603 0.69233906 1.0317627
4.3759303 0.66216087 1.0259975
4.3885717 0.63445991 1.0186757
4.3828378 0.59672832 1.016498
4.3868537 0.57062823 1.0126307
4.1796865 0.50163746 1.0289928
4.1720099 0.47111574 1.0283781
4.1831307 0.44694152 1.0243752
4.1863942 0.41801143 1.0190184
4.1701937 0.38617599 1.0200636
4.197093 0.35745493 1.0138032
4.1998134 0.32756782 1.0100727
4.1866317 0.29626793 1.0099897
4.1929164 0.26659259 1.0071299
4.4208026 0.25700811 0.98060083
4.4264474 0.22514266 0.97547102
4.4323678 0.1927506 0.97498322
4.4376974 0.16016932 0.97201431
4.319984 0.12708117 0.98761356
6.2103682 0.14896411 0.75789952
6.3191376 0.1013923 0.74830794
7.2647424 0.059739158 0.63246977
7.2971296 -0.0033641139 0.63148749
7.2485919 -0.062960334 0.63247156
6.7283225 -0.11187523 0.70137
7.2588258 -0.17420593 0.63451111
7.2575035 -0.23328669 0.63946903
7.2508073 -0.29281837 0.63796616
7.2407503 -0.35128915 0.64646316
7.2376337 -0.40255159 0.64609981
7.2381096 -0.46138561 0.65022182
7.2337704 -0.5199976 0.65226078
7.2295418 -0.57783329 0.65939653
7.1935191 -0.62539184 0.66726172
7.1917696 -0.68289006 0.66925871
7.186151 -0.7397036 0.67680359
7.1831756 -0.80037153 0.68089533
7.1686187 -0.85571086 0.68912625
3.3887835 -0.35762891 1.1144571
3.3072557 -0.36691731 1.1259278
3.2727003 -0.38381848 1.1328433
3.2656169 -0.40342429 1.1358585
3.2621288 -0.42490795 1.1392176
3.2470007 -0.44240031 1.1433918
3.2273402 -0.46239856 1.1500368
3.2351885 -0.48514327 1.1525373
3.2119427 -0.49983078 1.1574866
3.2156854 -0.52127993 1.1609192
3.2225447 -0.54587799 1.1635847
3.1951323 -0.55927008 1.1706463
3.1979403 -0.58220065 1.1743097
3.1897149 -0.59950185 1.1795382
3.1808209 -0.61848974 1.1844115
3.2098494 -0.64920586 1.1861761
3.2348604 -0.67890418 1.1888984
3.2371907 -0.70034254 1.1938038
3.2390289 -0.72255176 1.1979306
3.2324653 -0.7447722 1.2050343
3.2721181 -0.77862781 1.2070677
7.1160426 -2.1300614 0.92719412
7.0983567 -2.1840777 0.94417858
7.1110673 -2.2465379 0.95993972
7.1175451 -2.3128211 0.97586966
7.1098132 -2.3700087 0.99330878
7.1985984 -2.4642503 1.006202
7.1097894 -2.4956748 1.0300536
7.2292256 -2.6074042 1.0435867
nan nan nan
9.982523 -3.9288568 0.94930577
9.7879457 -3.9377396 0.98813438
6.6386147 -2.5916021 1.1481767
7.6147661 3.0609171 1.0061204
7.5956631 2.9838619 0.98394132
7.608232 2.9228499 0.96189332
7.6102014 2.8546782 0.94052124
7.5936146 2.7774851 0.92022538
7.6236982 2.7216773 0.89740062
7.6147842 2.6547592 0.87992835
7.6112514 2.5832574 0.860888
7.5532284 2.4964495 0.84759903
nan nan nan
nan nan nan
nan nan nan
4.1954284 1.1003642 1.0873517
4.3185797 1.1064967 1.0680326
4.342947 1.0800908 1.0569854
4.3320389 1.0461624 1.0518527
4.1335502 0.95711619 1.0638998
4.1346736 0.92268658 1.0574677
4.1266675 0.89009666 1.0519756
4.1488638 0.86672002 1.0432301
4.1405792 0.83309519 1.0378478
4.1389775 0.80452502 1.0321339
4.1497393 0.77482009 1.025648
4.1400676 0.74373496 1.0211318
4.1389022 0.71040773 1.0167454
4.3542967 0.72675002 0.98633373
4.3408036 0.69086039 0.98284459
4.3696933 0.66460818 0.97470725
4.2529655 0.6159693 0.98402095
4.3682919 0.60054135 0.9667927
4.3728008 0.57105219 0.96241462
4.1778078 0.50336361 0.98069775
4.1775403 0.47719827 0.97939903
4.1733308 0.44748428 0.97684723
4.1801023 0.42205191 0.97119123
4.1800923 0.38880232 0.97027999
4.1911325 0.358013 0.96539676
4.1935921 0.33134854 0.96252614
4.2083154 0.29899865 0.95818156
4.1867723 0.27000779 0.95983022
4.4225316 0.25483191 0.92808247
4.4119058 0.22763921 0.92519099
4.4140797 0.19154631 0.92513037
4.4113359 0.16217944 0.9236204
4.3177433 0.12634715 0.9373588
5.8557363 0.14283101 0.72713685
5.9444695 0.092423134 0.71763456
6.218214 0.053060185 0.67801511
7.2577949 0.0044267541 0.54332256
7.268559 -0.06727957 0.53597808
6.8800111 -0.10840128 0.59262335
7.2470617 -0.17884132 0.54244602
7.2617168 -0.23219521 0.54429054
7.2467885 -0.29853359 0.54416764
7.2293501 -0.34507862 0.55248404
7.2335753 -0.40877604 0.5522306
7.2225995 -0.46051329 0.55749393
7.2177725 -0.52606714 0.56001699
7.1983066 -0.57613027 0.5687387
7.173656 -0.63132143 0.57608032
7.1961188 -0.68538517 0.57441688
7.1741142 -0.74710679 0.58467364
7.2105074 -0.81347692 0.5846045
7.1810675 -0.86045069 0.59452033
3.3015733 -0.34869596 1.0887812
3.2598038 -0.36131531 1.0961607
3.256742 -0.38302657 1.0997064
3.2532573 -0.40573245 1.1029754
3.2458611 -0.42626953 1.1063812
3.2545247 -0.44619891 1.1075783
3.2387857 -0.467336 1.1141617
3.2038636 -0.48112488 1.1215131
3.2074518 -0.50386482 1.1242146
3.1956668 -0.52177197 1.1290178
3.1832285 -0.5417397 1.134119
3.1867547 -0.56261009 1.1376636
3.1779847 -0.5826323 1.1424084
3.1852007 -0.60395503 1.1461351
3.1839738 -0.62534779 1.1507508
3.2018867 -0.65110987 1.1523602
3.1997385 -0.67465156 1.1582074
3.1944737 -0.69364667 1.1634226
3.2196832 -0.72113752 1.1649114
3.2547617 -0.75715429 1.1679151
3.278718 -0.78787017 1.1715418
3.4600878 -0.87493116 1.1608694
7.1983218 -2.2394888 0.84288239
6.5220637 -2.0499363 0.91656053
6.897326 -2.2455549 0.89973426
7.074791 -2.3772697 0.90292168
nan nan nan
nan nan nan
nan nan nan
nan nan nan
nan nan nan
nan nan nan
nan nan nan
7.599987 3.0787928 0.90479636
7.5884147 3.0043514 0.88375068
7.6046281 2.9445755 0.86107445
7.5920348 2.8695714 0.84101176
7.6342664 2.8167744 0.81584787
7.6092453 2.7373557 0.79773498
7.6226907 2.6786671 0.77842903
7.5966454 2.5983841 0.7599287
7.6095996 2.5381188 0.74212265
nan nan nan
nan nan nan
nan nan nan
4.2037206 1.1115986 1.0383142
4.3264585 1.1179096 1.0160638
4.3282189 1.0840394 1.0086565
4.336163 1.0559137 1.0002059
4.2488918 0.99911642 1.0047042
4.1202521 0.92591393 1.0112063
4.1313591 0.89861536 1.0034686
4.1346159 0.86937356 0.99781626
4.1339598 0.83769077 0.99125046
4.1517224 0.81388712 0.9842127
4.150805 0.78110033 0.97806108
4.1490455 0.75149441 0.97370499
4.1553874 0.71973586 0.96636862
4.3433795 0.73003566 0.93739539
4.361001 0.70035654 0.93000525
4.288703 0.65389764 0.93507862
4.1919174 0.60905355 0.94571763
4.2557068 0.58537054 0.93058014
4.2014503 0.54677242 0.93442732
4.1715126 0.50633913 0.93660355
4.1826043 0.48154482 0.93037325
4.1704741 0.45063066 0.92846084
4.1857176 0.42582634 0.92598855
4.1890574 0.39295784 0.92028338
4.1963401 0.36134112 0.91708833
4.1950874 0.33382255 0.91616678
4.1860447 0.29919335 0.91451067
4.1960607 0.27254927 0.9114396
4.4112587 0.25572687 0.87666142
4.4250751 0.23014317 0.87576932
4.4267454 0.19373184 0.87204748
4.4203744 0.16365092 0.87327522
4.3502932 0.12570375 0.88118684
5.8768482 0.14853996 0.64915073
6.191299 0.098199688 0.60651076
6.04182 0.051666647 0.63029885
7.2761865 -0.00059402967 0.44458079
nan nan nan
6.7372832 -0.10609653 0.5256542
7.2228761 -0.17919621 0.45688546
7.2170496 -0.23291042 0.45679605
7.2387633 -0.30002159 0.45871115
7.216229 -0.34708104 0.45963275
7.2408433 -0.41232371 0.4610486
7.2176805 -0.46370667 0.46572566
7.2292094 -0.53091443 0.47009611
7.2168293 -0.58238596 0.47219014
7.1924086 -0.63759023 0.48092711
7.160295 -0.68648279 0.49154782
7.1928487 -0.75513572 0.49035442
7.1863852 -0.81610459 0.4988724
7.1919479 -0.86908728 0.50234556
3.3125448 -0.3529647 1.0534148
3.2904224 -0.36876303 1.0586401
3.275444 -0.38912889 1.0629761
3.2564039 -0.40919319 1.0688214
3.2763228 -0.43519095 1.0691525
3.25385 -0.44948158 1.0750687
3.2261763 -0.4684512 1.0811729
3.2145844 -0.48735952 1.0859494
3.1757417 -0.5005042 1.0951991
3.1871648 -0.52373183 1.0968161
3.1787381 -0.54463631 1.1024529
3.1744013 -0.56385618 1.1060157
3.1695962 -0.58486301 1.1110514
3.1612678 -0.60224366 1.1151249
3.1831179 -0.62983698 1.1171736
3.1781845 -0.6491797 1.122335
3.195097 -0.67835379 1.1255965
3.2011085 -0.70117551 1.1289825
3.1960869 -0.71914774 1.1348069
3.2687569 -0.76774561 1.1318345
3.2662368 -0.78974551 1.1376896
3.2932577 -0.82319117 1.1406665
5.836834 -1.7652647 0.88773286
5.8565998 -1.8192574 0.89790595
5.9872179 -1.9169962 0.89784396
6.1412086 -2.0311069 0.89813554
nan nan nan
5.167706 -1.7347728 1.0136523
5.6456609 -1.9799474 0.98586178
nan nan nan
5.26267 -1.906812 1.0453162
5.6650352 -2.1337841 1.028831
nan nan nan
7.5801187 3.0946875 0.80396318
7.5693173 3.0181606 0.78260517
7.6075764 2.967221 0.75760555
7.5953317 2.891046 0.73765397
7.6204672 2.8377638 0.71583748
7.6176686 2.766999 0.69594502
7.6005864 2.6872425 0.67714834
7.6262479 2.6282763 0.65690184
7.6003222 2.5576513 0.64215326
nan nan nan
nan nan nan
nan nan nan
4.1403584 1.0960466 0.99545753
4.2158489 1.0935915 0.98015642
4.3273706 1.0939813 0.95736885
4.3142109 1.0532271 0.95139873
4.3252668 1.0275613 0.94305551
4.1239791 0.93581706 0.96361798
4.1268497 0.90766519 0.95541501
4.1315074 0.87264293 0.94840235
4.1346288 0.84297818 0.94339395
4.1449094 0.81541061 0.9358514
4.1438026 0.78388822 0.93110746
4.1498046 0.75453353 0.92371356
4.133059 0.71835494 0.92221892
4.1617923 0.69336545 0.91123515
4.1585817 0.66765714 0.90856647
4.1603308 0.63566417 0.90441519
4.1498117 0.60266876 0.90163529
4.1746573 0.57361537 0.89484972
4.2368975 0.55874199 0.88220531
4.1673679 0.51303703 0.88772899
4.1677599 0.48115361 0.88491249
4.1945028 0.45933747 0.87868941
4.1707387 0.42377079 0.87855941
4.1824136 0.3904573 0.87419802
4.1810026 0.36418796 0.87168217
4.1719651 0.33096191 0.86921138
4.1939406 0.30585185 0.86393344
4.1926446 0.27268052 0.86278552
4.4072957 0.2624985 0.8278653
4.417099 0.22790258 0.82311159
4.4145126 0.19834295 0.82100749
4.416317 0.163064 0.82080811
4.3305702 0.12250064 0.83186775
5.874692 0.14004479 0.58189547
5.8473396 0.097572416 0.58191133
6.2430224 0.051048193 0.51859605
7.0875878 -0.0069074603 0.37768638
7.2419944 -0.060970668 0.35706484
6.7276354 -0.10082631 0.43738329
7.2516141 -0.17781328 0.35508907
7.0126677 -0.23341274 0.39316893
6.853713 -0.27728391 0.42492425
6.6779199 -0.3275995 0.4579891
6.7222161 -0.3779572 0.4497925
6.9820914 -0.45665798 0.40833724
6.6287336 -0.47759563 0.47054553
7.1202288 -0.58136594 0.3978467
7.1904812 -0.638969 0.38903558
7.2197671 -0.70572335 0.38780189
7.1985011 -0.75516737 0.39292741
7.2073421 -0.82184583 0.39878964
3.290132 -0.33078068 1.0183113
3.3151345 -0.35364386 1.0163815
3.2769995 -0.3709597 1.0253658
3.2813039 -0.39572799 1.0265465
3.259129 -0.41057536 1.0326592
3.3838778 -0.45763671 1.017392
3.2713294 -0.45891351 1.0373367
3.2286677 -0.47370428 1.0479857
3.2062392 -0.48616403 1.0538576
3.1863461 -0.5047121 1.0589875
3.189961 -0.5274716 1.0629492
3.1623759 -0.54286253 1.0702066
3.1579928 -0.5628202 1.0745265
3.1800847 -0.59034586 1.074895
3.1679873 -0.6075353 1.0813581
3.1667681 -0.62837905 1.0843163
3.1723604 -0.65477455 1.0889928
3.1824374 -0.67893869 1.0926126
3.1924767 -0.70213288 1.0951136
3.2090597 -0.7311784 1.0986986
3.2815094 -0.78024912 1.0950668
3.3023953 -0.80756617 1.0981655
3.2955127 -0.82949007 1.1044493
nan nan nan
5.9796801 -1.8780576 0.80944633
5.9071794 -1.905594 0.83114171
5.8225093 -1.9183981 0.85188198
5.8033371 -1.9601201 0.86851859
nan nan nan
5.6301913 -1.9908521 0.91577101
5.6773477 -2.0560029 0.92441297
5.7293663 -2.1294363 0.93474293
4.8054686 -1.7574164 1.0340587
5.795145 -2.2611339 0.96038401
7.5769362 3.1184618 0.70145893
7.5978351 3.05864 0.67757273
7.5967498 2.9879134 0.6559124
7.6317139 2.9326348 0.63087463
7.5741448 2.8395801 0.61789966
7.5786233 2.7717385 0.59746671
7.6194077 2.7189884 0.5744679
7.5994864 2.6447434 0.55758786
7.6069875 2.5750029 0.53734624
7.5970173 2.5058248 0.52267504
7.8692956 2.5411081 0.46934855
7.6612687 2.3972449 0.479954
7.6547747 2.3244748 0.46397197
4.2119298 1.0979893 0.92935741
4.3232408 1.0979506 0.90471244
4.3384919 1.0732787 0.89669508
4.3313203 1.0393759 0.89099038
4.1353755 0.94367403 0.91154653
4.1235137 0.91040975 0.90812421
4.1346569 0.88191205 0.90093136
4.1331501 0.85316133 0.89468092
4.1402354 0.82244515 0.88830727
4.1461949 0.79472011 0.88155311
4.1414599 0.76005542 0.87729633
4.1240993 0.72631389 0.87545502
4.1610017 0.70228815 0.86512947
4.1625743 0.67193729 0.86035556
4.1683059 0.63811529 0.85332376
4.16851 0.61275357 0.84974271
4.1696148 0.58143055 0.84626663
4.2562289 0.56254339 0.82760048
4.1866198 0.51867473 0.8349455
4.0341239 0.46907648 0.85828722
4.0031281 0.43176961 0.86083376
4.0371547 0.4113802 0.8519007
3.9976096 0.37519673 0.8566829
4.0045481 0.34342077 0.85157776
4.199152 0.33785963 0.8167237
4.2057877 0.30758104 0.81417465
4.2782207 0.28654185 0.79792964
4.4105334 0.26018527 0.77373886
4.4278622 0.23234841 0.7684617
4.4142504 0.19561438 0.7707532
4.4346581 0.16970219 0.76347911
4.322279 0.12741183 0.78439617
6.3658118 0.15843074 0.41818774
5.9025941 0.093156897 0.50113046
6.2096701 0.058277082 0.44283235
5.9702754 0.00070414809 0.48843992
7.2494955 -0.065247238 0.25881839
6.8435535 -0.11110608 0.33322155
6.5621786 -0.16725063 0.38118529
6.4788642 -0.20747399 0.40032244
6.480495 -0.26512176 0.40049255
6.502234 -0.31313536 0.39957404
6.5183001 -0.3751643 0.39708352
6.5241499 -0.41814062 0.40141809
6.5671701 -0.47951066 0.39604342
6.5673642 -0.52651006 0.39790738
6.5897131 -0.58962184 0.39816809
7.0790176 -0.69179064 0.31722414
7.1630616 -0.76431245 0.30913699
7.1785178 -0.8330453 0.30758393
3.3118696 -0.33517417 0.97997719
3.2740588 -0.35149825 0.98865902
3.2752671 -0.37075457 0.98922771
3.2719107 -0.39610997 0.99412793
3.2610331 -0.41540551 0.99851727
7.165482 -1.1863856 0.35073888
3.2656827 -0.46018678 1.003051
3.2425675 -0.47776449 1.0099735
3.2268925 -0.49751976 1.0159212
3.207551 -0.51476014 1.0227718
3.1836128 -0.53293139 1.0295758
3.1833525 -0.55360281 1.0333929
3.1746559 -0.57454336 1.0383599
3.178061 -0.5954715 1.0418582
3.1845341 -0.6197235 1.0451696
3.1796927 -0.63945931 1.0499778
3.1745296 -0.65972114 1.0549885
3.1949134 -0.69091725 1.0568413
3.216496 -0.71754748 1.0588059
3.2750769 -0.75767589 1.0545546
3.2837014 -0.78489667 1.0590605
3.2955575 -0.81425041 1.0631951
3.2737412 -0.83084226 1.0715326
nan nan nan
nan nan nan
nan nan nan
5.8906894 -1.9625931 0.77036738
5.8224554 -1.9878905 0.79240751
5.7229929 -1.9935169 0.8173846
5.6041656 -1.9930904 0.84555018
5.6310458 -2.0555062 0.85730159
5.6795897 -2.1268442 0.86677778
5.6555638 -2.1643834 0.88417602
4.7515531 -1.788771 0.99293351
7.5865159 3.1492388 0.59817398
7.578311 3.0762939 0.57792127
7.5782046 3.0026996 0.55481815
7.5879617 2.9352267 0.53279138
7.5689521 2.8633146 0.51663315
7.5917177 2.8029678 0.49389362
7.6011968 2.731019 0.47176945
7.6035008 2.6653636 0.45328832
7.5095234 2.5615587 0.44946468
7.4975538 2.485369 0.43294132
7.6055312 2.4608381 0.40097249
7.6360402 2.4039421 0.37996602
7.6295509 2.3308375 0.36428571
4.2172203 1.1107453 0.87878442
4.2119594 1.0723287 0.87207144
4.3219824 1.0747275 0.84684616
4.3375435 1.047544 0.83779311
4.1375871 0.95398718 0.86424589
4.1263881 0.91682792 0.85808277
4.1146355 0.88161516 0.85399795
4.1097779 0.85139751 0.85085553
4.0669355 0.80789661 0.85185206
4.0615039 0.77760166 0.8484323
3.9452066 0.71687108 0.86272603
4.1005926 0.72406858 0.83149856
4.1514964 0.70845354 0.81707948
4.1839333 0.68446195 0.80679166
4.2017546 0.65242565 0.79999381
4.2336826 0.62770516 0.78953898
4.1727495 0.58433342 0.7964589
4.3011179 0.5772925 0.76940805
4.3329597 0.54893714 0.75989842
3.8588271 0.44382948 0.8443712
3.7725444 0.40476111 0.85781837
3.6745181 0.36368811 0.87422222
3.7124858 0.34059086 0.86403245
3.742435 0.31846946 0.85682523
4.4015093 0.35928279 0.72839332
4.3920794 0.33069614 0.72832018
4.3949604 0.29636607 0.72704995
4.4087863 0.26515406 0.72199833
4.4108734 0.23036203 0.7199055
4.4047365 0.19385239 0.71880388
4.4141383 0.16729045 0.71807605
4.434546 0.13526599 0.71096456
6.222136 0.15087257 0.36661446
7.2593188 0.11468604 0.16238105
5.999989 0.052473426 0.40899432
6.545495 0.0048400187 0.30007696
5.9880662 -0.048411366 0.4103632
nan nan nan
nan nan nan
6.4402342 -0.20345394 0.32304323
6.4779038 -0.26253244 0.31991577
6.4985023 -0.31979436 0.3154372
6.4963927 -0.37173611 0.3213141
6.5047631 -0.41611722 0.31752932
6.5561628 -0.4778173 0.31308031
6.559711 -0.53436786 0.31558347
6.5477886 -0.58523178 0.32264602
6.5620012 -0.64315587 0.32311082
7.1646681 -0.77599978 0.21282601
7.1826019 -0.83531922 0.21813846
3.2894816 -0.33658084 0.94775444
3.2561226 -0.34986651 0.95579404
3.2728801 -0.37504673 0.95645416
3.2612705 -0.39938816 0.96027982
3.3012948 -0.42431158 0.95496225
7.0920153 -1.1768172 0.27397335
3.2513032 -0.46286592 0.97075254
3.2205329 -0.47872519 0.97924405
3.2132139 -0.49686891 0.98340249
3.2053208 -0.51685703 0.98766059
3.2009339 -0.53964102 0.99312449
3.1737094 -0.55401409 1.0008795
3.1804743 -0.57893211 1.0040938
3.1722445 -0.5971716 1.0086908
3.1824455 -0.62273395 1.0110444
3.1617627 -0.64098513 1.0191844
3.1755633 -0.66691077 1.0212226
3.1891646 -0.69315737 1.0239359
3.2322755 -0.73010564 1.0213993
3.3245649 -0.78163952 1.0115719
3.2962618 -0.79415339 1.0208762
3.293211 -0.81845748 1.027597
3.2863255 -0.84081 1.0344826
5.8546062 -1.8153141 0.6611079
nan nan nan
6.005475 -1.9763012 0.66461337
5.8698897 -1.968231 0.69568586
5.7724872 -1.9817197 0.72314477
5.6063886 -1.9628898 0.76065946
5.6194863 -2.0180354 0.77262914
5.600091 -2.0571389 0.78883481
5.5507636 -2.0845771 0.80988026
4.9030104 -1.8324383 0.90328825
5.6712894 -2.2400155 0.82523322
7.5441885 3.1557813 0.4996556
7.5725932 3.0979617 0.47456706
7.5667396 3.0280628 0.45546663
7.5733733 2.9574142 0.4331671
7.5827684 2.8888712 0.41120875
7.6058145 2.8272877 0.38800478
6.891387 2.4647131 0.47902262
6.7976313 2.3620603 0.47619164
6.8966713 2.3416102 0.44522846
6.6485276 2.1865139 0.47001266
6.642436 2.1281304 0.45613742
6.6144748 2.0593901 0.44677401
6.6238418 2.0024867 0.43230474
4.2828074 1.1397711 0.81709832
4.2355852 1.089395 0.81685746
4.3187714 1.0851339 0.79667175
4.3300962 1.0578709 0.78765225
4.2147923 0.98507166 0.80113387
4.1089406 0.92159218 0.81409961
3.8883877 0.82874101 0.84860653
3.8532043 0.78893018 0.84947801
3.8359351 0.75781882 0.84763509
3.8155394 0.72223401 0.84674191
3.7902584 0.68927687 0.84717846
4.286581 0.77353966 0.74820703
4.3652711 0.75876009 0.72763044
4.302887 0.70791548 0.73577642
4.3693995 0.69116253 0.71791846
4.3697906 0.66401482 0.71365756
4.2788882 0.61135763 0.72791815
4.3649654 0.5928309 0.70688969
3.5564647 0.42300975 0.8625865
3.8272433 0.44287822 0.80806988
4.3701181 0.49399 0.69540834
4.2797642 0.45295048 0.70904386
4.2878804 0.41800117 0.70628142
3.5124884 0.29400414 0.86226761
3.7637644 0.29954576 0.80879951
4.4136343 0.33065879 0.67177236
4.3967109 0.29952717 0.67536938
4.3873501 0.26228958 0.67486012
4.4119921 0.23713292 0.66642112
4.4181228 0.19950639 0.66483045
4.4157901 0.16983624 0.6656971
4.4168563 0.13230297 0.66297066
5.9826818 0.15243295 0.33301568
6.454926 0.10515759 0.24007392
5.8757982 0.041873232 0.35891807
6.2090845 0.00073328079 0.2908082
5.9725795 -0.055598967 0.33381355
6.1998005 -0.099585891 0.29002178
nan nan nan
6.4602685 -0.21006387 0.24095976
6.4729567 -0.25540149 0.23253119
6.4596024 -0.3149797 0.24215257
6.4841161 -0.37569702 0.2405355
6.4731126 -0.42183828 0.24303389
6.5232368 -0.4866744 0.23368251
6.5394845 -0.53675193 0.23532212
6.5357285 -0.59011853 0.2432586
6.5779195 -0.6410138 0.23594546
7.1707172 -0.77692258 0.11860466
7.1597352 -0.8395775 0.12491405
7.1932454 -0.89634651 0.12608063
3.2606392 -0.35650989 0.92052388
3.2699208 -0.37722495 0.92142361
3.2511673 -0.39761034 0.92744464
3.2321477 -0.41816866 0.93349588
3.2557878 -0.44575274 0.93255854
3.2294397 -0.4593035 0.93888104
3.2216616 -0.48270094 0.94517714
3.1908154 -0.4980782 0.95376188
3.1867394 -0.51957631 0.95799673
3.1750894 -0.53813046 0.96384311
3.1702709 -0.56060171 0.96775419
3.1622996 -0.57910389 0.97302169
3.1649518 -0.60291725 0.97625661
3.1644306 -0.62277257 0.98039269
3.1745343 -0.6480515 0.98285246
3.1807547 -0.67145741 0.98537505
3.2011724 -0.70280313 0.98718876
3.229641 -0.73349452 0.98666412
3.3367519 -0.78954875 0.97207868
3.3036695 -0.80507988 0.98416305
3.2822914 -0.8215906 0.99306631
3.3088579 -0.85616708 0.99445641
nan nan nan
5.6741734 -1.8098675 0.62586892
5.9215689 -1.9549211 0.59898198
5.8352714 -1.974802 0.62648845
5.7577581 -1.992123 0.65113389
5.5847039 -1.9700581 0.69097269
5.557817 -2.0079863 0.70866776
5.5819912 -2.0664845 0.71870804
4.8758984 -1.7941182 0.83262968
4.8578906 -1.8279675 0.84762752
4.8756261 -1.8782982 0.85810864
7.5222235 3.1720462 0.40004551
7.1568971 2.9266617 0.43421137
7.1002436 2.8344116 0.42377937
7.1263471 2.7787194 0.40038276
7.5634794 2.9079599 0.31189454
6.6305389 2.4363992 0.44651639
6.6029181 2.3617923 0.43408346
6.611145 2.3028421 0.41677737
6.6268573 2.2572083 0.4014529
6.6196289 2.1905537 0.38496125
6.5994334 2.1255963 0.37613106
6.6343107 2.0800681 0.35584688
6.6248288 2.0158975 0.34258592
4.2352743 1.1306106 0.77338684
4.2171454 1.0942708 0.77106112
4.3257885 1.0992674 0.74324369
4.331203 1.0643256 0.73538673
4.3241487 1.0289829 0.73036456
3.649364 0.79645044 0.85549569
3.6298676 0.76003563 0.85365856
3.8747354 0.7991057 0.8004123
3.6493969 0.71156424 0.84277612
3.5632992 0.6619606 0.85326457
4.2054291 0.79249501 0.72044557
4.3219686 0.78539097 0.68758911
4.3515959 0.75806212 0.67933619
4.3674788 0.73375142 0.66988564
4.3810058 0.70237666 0.66324234
4.378716 0.66783762 0.65918994
4.2384 0.60332084 0.68513215
4.3730979 0.60202688 0.65362048
3.358942 0.3962701 0.86660272
3.3854394 0.37563276 0.85901403
3.3454232 0.34492311 0.8631894
3.3866792 0.33188051 0.85452008
3.3266392 0.30258378 0.86436719
3.3139191 0.27580711 0.86670202
4.3999262 0.3666054 0.62445736
4.4063945 0.33589563 0.62097061
4.3937159 0.29825109 0.62240517
4.4073305 0.26288089 0.61524665
4.4175758 0.23165895 0.61435777
4.4146328 0.20419489 0.61183649
4.4086461 0.16691139 0.61284685
4.413939 0.139662 0.61278498
5.8976464 0.14643802 0.2797215
6.1749592 0.10674778 0.21364868
6.5038095 0.054009072 0.14087963
6.2006903 -0.007770143 0.21391559
6.6018562 -0.057847466 0.12126982
6.0275607 -0.10625112 0.25115299
nan nan nan
6.4494448 -0.21761109 0.15416849
6.4639816 -0.26871973 0.15590048
6.473412 -0.32805109 0.15738022
6.5017691 -0.37413779 0.15035141
6.5095062 -0.43337041 0.14909089
6.4995284 -0.47604242 0.15692616
6.5871959 -0.55114275 0.13816357
6.541615 -0.58998156 0.15469384
6.5515828 -0.64962697 0.15514386
7.0193677 -0.75901502 0.054492116
7.2495666 -0.85359991 0.012181997
7.1686492 -0.91394603 0.040344715
3.2187958 -0.35092133 0.89409441
3.2236614 -0.3748062 0.89595181
3.2086978 -0.39840057 0.90298134
3.195117 -0.40987718 0.90737939
3.2103043 -0.43856803 0.90644813
3.2105794 -0.4610936 0.90926659
3.2070661 -0.48449132 0.91589487
3.1949592 -0.50546402 0.9200598
3.1760521 -0.51953053 0.92520702
3.1720519 -0.53983408 0.92927665
3.1678734 -0.56203657 0.93581802
3.159358 -0.581361 0.93921477
3.1549916 -0.60256928 0.94581759
3.1578207 -0.62447613 0.94817394
3.1714277 -0.65091151 0.94836479
3.1734042 -0.67664719 0.95436716
3.1830559 -0.70142239 0.95583993
3.2226386 -0.73564535 0.95211112
3.2989769 -0.78524178 0.9443683
3.2917762 -0.80944538 0.94988126
3.2788644 -0.82574433 0.95745969
3.2682962 -0.84698987 0.96510446
5.680552 -1.7774898 0.53998625
nan nan nan
5.8896489 -1.9619865 0.52827168
5.8381114 -1.9901707 0.54834378
5.6259975 -1.9516723 0.59847331
4.8492184 -1.6731998 0.74111581
4.7561102 -1.6741931 0.76766849
4.8271303 -1.7429516 0.76661837
5.4712043 -2.0823143 0.67809892
4.8875589 -1.8585287 0.78248334
5.6407895 -2.2635953 0.68199587
6.9258218 2.9094007 0.39444196
7.1591392 2.9545274 0.33568966
7.5399423 3.0651598 0.25108147
7.5604119 3.0018604 0.22709966
7.6165299 2.9541976 0.19751704
6.6109996 2.4467607 0.35943699
6.5712075 2.3713741 0.35167038
6.2535596 2.1827927 0.39607096
6.195292 2.0969944 0.39045191
6.2910905 2.083508 0.36100781
6.2663207 2.019891 0.35398269
6.09308 1.9009757 0.37274504
5.9975357 1.8109661 0.38071108
5.9605327 1.7416919 0.37557483
4.214191 1.0976917 0.71807897
4.2177005 1.0710888 0.71306634
4.3375144 1.077518 0.68102372
3.503602 0.78104633 0.84823567
3.6367774 0.79767048 0.81637305
3.4809613 0.725456 0.84450203
3.3878174 0.67635548 0.8600983
3.3632188 0.64380831 0.86206198
3.8980379 0.75882179 0.7396971
4.2500434 0.81340486 0.65761524
4.2408113 0.77939713 0.65485227
4.340384 0.7631883 0.63245595
4.3486915 0.73350984 0.6215952
4.3661723 0.69887036 0.61115748
4.3511543 0.67055827 0.61201864
4.3678842 0.63916034 0.60403371
4.3825169 0.60337234 0.60321057
3.1818838 0.36867121 0.87116981
3.1566539 0.34764707 0.87320483
3.1600909 0.32214648 0.87136734
3.1893582 0.30325922 0.86105812
3.1490149 0.28058469 0.87060547
3.124145 0.25160837 0.87303084
3.1683488 0.23927018 0.86180693
4.3911901 0.33443487 0.57187635
4.392705 0.30755135 0.56769639
4.4155474 0.26785961 0.56313038
4.4204955 0.24086529 0.55828273
4.4149876 0.20344742 0.55970067
4.4050407 0.17532904 0.563353
4.3712211 0.13223501 0.56880605
6.149509 0.15902847 0.14488721
6.0608478 0.10143899 0.16374409
6.153748 0.061994836 0.13681149
5.8632426 -0.0013555511 0.21035147
6.5635834 -0.062123325 0.044698119
6.0220551 -0.096851684 0.17320633
6.4785986 -0.17281252 0.060360312
6.4703817 -0.21660589 0.066879034
6.4999471 -0.27685213 0.064047933
6.4937963 -0.32092118 0.065487623
6.5087328 -0.38907713 0.060025334
6.5069432 -0.43280154 0.066098094
6.5182085 -0.49325234 0.065266967
6.5700445 -0.5419594 0.059203386
6.5789914 -0.61023575 0.056752443
6.559792 -0.65215039 0.065440536
6.844348 -0.74701768 0.0048856735
6.8823819 -0.82235718 -0.0022652149
6.9474854 -0.87753743 -0.0094356537
6.7821097 -0.91398728 0.035072803
3.2046008 -0.37064838 0.8632791
3.2129269 -0.39809605 0.86552048
3.1866031 -0.41632792 0.87416577
3.1518898 -0.43514532 0.88421029
3.1496449 -0.45091969 0.88832349
3.1612978 -0.47532362 0.88849115
3.1682858 -0.50171399 0.88952756
3.179637 -0.52622223 0.8904866
3.1672912 -0.54757786 0.89605218
3.148057 -0.56382728 0.90391338
3.1583209 -0.5901835 0.90512818
3.1503181 -0.60861772 0.91088605
3.1717052 -0.63772047 0.91035533
3.1635704 -0.65533125 0.91625047
3.1621456 -0.67737144 0.92076647
3.1891561 -0.71314687 0.91946995
3.210773 -0.73930228 0.91982758
3.2427173 -0.77146769 0.91828865
3.2395072 -0.79679418 0.9239924
3.2400374 -0.82257134 0.92904454
3.2627606 -0.85581529 0.93006516
nan nan nan
nan nan nan
nan nan nan
5.7547526 -1.9750681 0.48857856
4.8664527 -1.6534249 0.66545069
4.9888144 -1.7437357 0.6531058
4.9206624 -1.7577686 0.6773088
5.0998521 -1.8854336 0.65843987
5.6294742 -2.1773863 0.58014524
4.8236961 -1.8435 0.7305252
4.5531597 -1.7538981 0.78771704
6.9384465 2.9411616 0.29708791
6.182478 2.5108624 0.41736507
6.1336937 2.431174 0.41048288
6.0882549 2.3524687 0.40315783
6.0447407 2.2787397 0.39744163
6.0551519 2.2275193 0.38039315
5.9496818 2.1257515 0.38650239
5.9088917 2.0523372 0.3815279
5.947897 2.0221522 0.36124027
5.6942534 1.8646207 0.40001392
5.7006154 1.8189036 0.38742387
5.6777868 1.7604072 0.38111842
5.6733646 1.7069565 0.37034559
5.7294574 1.6831678 0.34996891
4.2159142 1.1127244 0.66888452
4.2351575 1.0875598 0.65917397
3.2449493 0.73509127 0.87203205
3.2619033 0.71692514 0.86474019
3.2785606 0.69844204 0.85672021
3.2097168 0.64907736 0.86556709
3.2105627 0.62824702 0.8621847
3.5127392 0.68575674 0.78557587
3.9716311 0.77840835 0.67619574
4.2272115 0.81278157 0.61233765
4.2374525 0.77876467 0.60293877
4.3728976 0.77702862 0.56820917
4.3579302 0.74524295 0.56402016
4.3664408 0.70245367 0.56168395
4.3621163 0.67611128 0.55650532
4.329576 0.63046312 0.55882543
4.3178825 0.60292 0.55884182
3.0698137 0.35447884 0.86290359
3.0760622 0.3390446 0.86111271
3.0398188 0.3117986 0.86604261
3.0193548 0.28691718 0.86977684
3.0338035 0.26395273 0.8655107
3.0823078 0.24738911 0.85222369
3.1490326 0.23780511 0.83281803
4.4018488 0.34074217 0.51637602
4.3967052 0.31272227 0.51831633
4.3873739 0.27487838 0.51775491
4.4161606 0.23522617 0.50551474
4.4143076 0.20721397 0.50746918
4.4195628 0.16991957 0.50390917
4.3851433 0.12993403 0.50795084
5.9870038 0.14449997 0.10251665
5.9146523 0.10264371 0.12240911
5.8490772 0.048006952 0.13721967
5.8769913 0.0088326233 0.13248897
6.2519193 -0.055933084 0.033665895
6.4404416 -0.11925291 -0.016321421
5.9561467 -0.14663889 0.11136651
6.3718052 -0.22000133 0.0021524429
6.4099922 -0.26291195 -0.0026446581
6.3992553 -0.31237608 -0.0020942688
6.5134811 -0.38047495 -0.023861051
6.5219021 -0.44099686 -0.021966934
6.436965 -0.47826752 -0.0018461943
6.5910625 -0.55456376 -0.019567728
6.5290613 -0.61299706 -0.011176705
6.4548073 -0.64840299 0.0066014528
6.4565473 -0.69887942 0.005053401
6.6888146 -0.79414701 -0.029493928
6.5027537 -0.82300925 0.0086880922
6.531198 -0.87859923 0.0064661503
6.5758305 -0.94721407 0.012995958
3.1848564 -0.39881441 0.83570921
3.1630797 -0.4135085 0.84314209
3.1576104 -0.43332988 0.85350823
3.152051 -0.45987099 0.85275614
3.1445708 -0.48036301 0.85734808
3.156424 -0.50453842 0.85913509
3.1452594 -0.52112001 0.86389709
3.1527333 -0.54445624 0.86584425
3.1177244 -0.55964541 0.87725735
3.1361194 -0.58509678 0.87574649
3.1387959 -0.60724914 0.87668133
3.1419358 -0.63045603 0.88180327
3.1467705 -0.66022319 0.88523954
3.1462603 -0.67947078 0.89001811
3.1559143 -0.70480555 0.8921119
3.1826224 -0.7404635 0.89041257
3.2040329 -0.76639402 0.89016354
3.2233028 -0.79922867 0.8918829
3.2142496 -0.81670469 0.89885545
3.2993689 -0.87318975 0.88570583
nan nan nan
nan nan nan
5.1725755 -1.7058456 0.51951915
4.8800535 -1.6278996 0.58936501
5.0161605 -1.726514 0.5724439
nan nan nan
4.7821283 -1.7150953 0.64218032
5.5727239 -2.1145217 0.50126374
4.7666249 -1.7886074 0.66719067
4.7091961 -1.8052514 0.69049507
4.7094545 -1.8461123 0.70182484
5.9929094 2.4990113 0.38755751
5.9732475 2.4325593 0.37533391
5.8457255 2.3174071 0.38610947
5.7780552 2.2311845 0.38516676
5.6447005 2.1178827 0.3990283
5.6360364 2.0616539 0.38724315
5.629869 2.0087106 0.37555933
5.6279759 1.954405 0.3629446
5.6272292 1.9076521 0.35210586
5.6312208 1.8575335 0.33876908
5.6341147 1.810454 0.32819414
5.6369324 1.7615658 0.31634474
5.646841 1.7139617 0.30171347
5.6461492 1.6602235 0.29053831
3.1249738 0.7468347 0.87359792
3.1227927 0.72505057 0.86979395
3.1357551 0.70685446 0.8628794
3.0817161 0.6662758 0.871014
3.0941606 0.64811957 0.86389083
3.1067877 0.62852871 0.85669839
3.1272407 0.60933143 0.84805399
3.3451214 0.64956284 0.79081678
4.4000278 0.89797795 0.52270877
4.2332449 0.82238597 0.55996525
4.2321091 0.78574705 0.55351895
4.335588 0.78508532 0.52698195
4.3458509 0.7461828 0.51620734
4.2752485 0.69998348 0.53111774
4.3671298 0.68025088 0.51251066
4.2974496 0.6313895 0.51523417
3.2610512 0.41197693 0.78174937
3.0505123 0.35328847 0.83549845
2.9227848 0.31317127 0.86623883
2.9632373 0.30368581 0.85546196
3.0296617 0.29563373 0.83355415
2.9597659 0.26130345 0.8514241
3.0272622 0.24784006 0.83243203
4.5255055 0.38281944 0.43333966
4.3924465 0.34935749 0.46738398
4.4104424 0.30885243 0.45804518
4.4203396 0.27221957 0.45252568
4.4206352 0.24679561 0.44657654
4.4162178 0.20126733 0.45008576
4.4103003 0.17270313 0.45319968
4.4189086 0.13556741 0.44825137
5.7960672 0.15299201 0.069718599
nan nan nan
5.9387603 0.051897068 0.037842631
5.8843226 -0.0025622726 0.050072432
6.1302438 -0.066951044 -0.019589663
6.2503734 -0.10172286 -0.048362255
6.0144701 -0.1522492 0.018856049
6.1130557 -0.20701684 -0.0080912113
6.3393159 -0.27241093 -0.065325141
6.1360574 -0.30416813 -0.012650132
6.1027694 -0.35833418 -6.2942505e-05
6.1189842 -0.4011862 -0.0052425861
5.9638438 -0.46020478 0.039158821
6.1927853 -0.52770412 -0.013436794
6.2656665 -0.57733816 -0.032714367
6.2574935 -0.62842196 -0.025986671
6.1596751 -0.68443584 0.0087798834
6.1320729 -0.71731919 0.015852451
6.2021389 -0.78264719 0.00040507317
6.1829181 -0.82049173 0.01292479
6.1668324 -0.88050568 0.020781159
3.1952291 -0.40136459 0.79589844
3.1726871 -0.42197841 0.8045274
3.1551933 -0.43986002 0.81534922
3.1210432 -0.458056 0.82807207
3.1218271 -0.47456968 0.82851648
3.1105781 -0.493817 0.83440101
3.110127 -0.51807266 0.83833748
3.1288352 -0.54402822 0.83684409
3.1318278 -0.56886184 0.84017813
3.1237803 -0.58773023 0.84508419
3.1452689 -0.6171515 0.84404904
3.1331344 -0.63446641 0.84960711
3.1281872 -0.65574414 0.85513014
3.1639881 -0.69007546 0.85135412
3.1507845 -0.71007109 0.85863924
3.152926 -0.73249209 0.86223423
3.1992612 -0.77049929 0.85630751
3.18505 -0.79188222 0.86450016
3.1902924 -0.81593359 0.86809611
3.289866 -0.87800658 0.85074782
5.7660108 -1.8586442 0.29695678
5.4207916 -1.7711973 0.38547266
4.8910704 -1.6051655 0.51403695
4.918263 -1.6593103 0.51844966
5.2159328 -1.828468 0.46474457
4.9096174 -1.7432375 0.54252112
5.7659783 -2.1736088 0.37396097
4.6151052 -1.6921326 0.62584752
4.6478682 -1.7489601 0.63040406
4.6939964 -1.8136727 0.63272858
4.8883228 -1.9511687 0.60621208
5.5989017 2.3244405 0.39085507
5.5848999 2.265049 0.37944269
5.5664964 2.2047708 0.36915576
5.5335712 2.1377835 0.36290693
5.5571823 2.096849 0.34403777
5.533989 2.0346839 0.3358345
5.5169778 1.9773589 0.32728624
5.4556098 1.9033045 0.328982
5.539958 1.8845509 0.29626763
5.4884806 1.8167573 0.29879689
5.5341558 1.7876379 0.27597094
5.511116 1.72984 0.27054048
5.5176926 1.6814535 0.25938249
5.5307293 1.6354182 0.24464691
2.9860306 0.70939451 0.87399226
3.010695 0.69291908 0.86326683
3.0045199 0.67042243 0.86082387
2.990582 0.6427002 0.85615724
3.0112615 0.62776858 0.85153449
3.0495729 0.61718035 0.83776414
3.094708 0.61022508 0.82208693
4.3370285 0.92666465 0.48993659
4.3359447 0.89342672 0.48442328
4.2645092 0.83763993 0.49852192
4.2345262 0.80647641 0.50073212
4.3077064 0.77673644 0.47783017
4.3358388 0.75042522 0.4657352
4.3655596 0.71573019 0.45412058
4.3613563 0.68921882 0.44972509
4.3592753 0.65475821 0.44818056
4.4753642 0.63352746 0.41155541
4.4225407 0.58904475 0.42073804
2.9871006 0.32960081 0.81920171
4.3781419 0.51162285 0.42818242
4.3813815 0.47721323 0.42204404
2.9404693 0.26104566 0.82653844
4.2810903 0.39611986 0.44511479
4.3679876 0.37736896 0.41945666
4.3748636 0.34227452 0.4159537
4.4072676 0.31629241 0.40367144
4.3953691 0.27234024 0.40735239
4.4269924 0.24671064 0.39450949
4.4178591 0.20803073 0.39745486
4.3953738 0.17864913 0.40049464
4.4054203 0.13616356 0.39973885
5.7663498 0.15027507 0.0074955225
5.7984653 0.097348489 -0.0013549328
5.8771868 0.037527658 -0.019942403
5.8343725 -0.0025569783 -0.010121584
5.8447614 -0.054396372 -0.016375899
5.7991157 -0.093815818 0.00071299076
5.7813401 -0.15373546 0.0021321774
5.8003693 -0.19403902 0.00096130371
5.9323058 -0.25387096 -0.037815094
5.8739567 -0.29118368 -0.016124964
5.1827664 -0.30285135 0.17875814
5.1623311 -0.33548364 0.18888712
5.1743364 -0.38281697 0.18659711
5.2682161 -0.42572665 0.16392434
5.9148917 -0.55305904 -0.013593674
5.8530002 -0.58589935 0.0028073788
5.9631877 -0.65079772 -0.023041487
5.9040933 -0.70518291 0.0018100739
5.9255342 -0.74803287 -0.0040806532
5.9230762 -0.79820365 1.9311905e-05
3.3068333 -0.40670624 0.73024058
3.2097411 -0.40828311 0.76072854
3.1572185 -0.4209874 0.77754176
3.1572804 -0.44787097 0.78167701
3.1202245 -0.45701113 0.79224998
3.1091413 -0.47670981 0.79825783
3.116292 -0.50331622 0.79993558
3.1130815 -0.51877272 0.80156457
3.1204271 -0.54211932 0.8026576
3.1339216 -0.57449478 0.80442393
3.1178212 -0.59417009 0.81201172
3.1360407 -0.6200574 0.81100595
3.1012797 -0.63324934 0.82399625
3.1263704 -0.66195571 0.82115078
3.1473389 -0.69096178 0.82020402
3.1519456 -0.7194007 0.8231523
3.1473618 -0.73780543 0.82910991
3.1823564 -0.77159852 0.82403696
3.1796942 -0.79610354 0.83041078
3.1655917 -0.8165344 0.83868241
5.7875457 -1.8368555 0.20383418
4.9772754 -1.5723188 0.41120058
4.9294081 -1.5945835 0.43206131
4.9215136 -1.631917 0.44396633
5.2150965 -1.7991896 0.38594663
4.9309878 -1.7250584 0.46263844
5.0653706 -1.825105 0.44195533
4.6051455 -1.6621865 0.55794215
4.8580356 -1.8229346 0.51269829
4.8118958 -1.8449801 0.53466731
nan nan nan
nan nan nan
5.3399043 2.2150795 0.37453651
5.2937627 2.1413221 0.37127566
5.2920346 2.0919991 0.35840428
5.3091216 2.0470462 0.34036994
5.2983232 1.9978195 0.33181906
5.2814326 1.9412788 0.32340002
5.310873 1.9043834 0.30386853
5.3261666 1.8601463 0.28876638
5.3240719 1.8171324 0.27942061
5.3205266 1.7642764 0.26767397
5.2681608 1.6978432 0.27097213
5.2772593 1.6546335 0.25847065
5.2574773 1.5984551 0.25335598
5.2634096 1.5505894 0.24283767
2.9121187 0.68653923 0.86092341
2.9023657 0.66374803 0.86035597
2.9258327 0.64984757 0.84943819
2.9602628 0.64006168 0.83665824
3.0167952 0.63648379 0.81753105
3.2299519 0.67232251 0.75225276
4.3348064 0.9657709 0.44289523
4.3217211 0.93716127 0.44423074
4.3339815 0.89512402 0.43199319
4.3467755 0.8729049 0.42643565
4.2235184 0.79574269 0.45155382
4.2322054 0.77318406 0.44812763
4.3646946 0.77034825 0.40252483
4.3606825 0.72856486 0.40106332
4.3771381 0.69726473 0.39135236
4.3720617 0.65512252 0.38902891
4.2399268 0.60368413 0.42548227
4.3801384 0.59390539 0.37849915
4.3739843 0.55069906 0.37612629
4.3627119 0.52159423 0.37963212
4.3660555 0.4859007 0.37313294
4.260644 0.43018621 0.40357059
4.2591958 0.4028039 0.40124983
4.3268957 0.36944476 0.37595201
4.3934746 0.35445225 0.35470796
4.3896542 0.31099316 0.355937
4.419064 0.27524936 0.34610093
4.4085279 0.24618801 0.34556413
4.4153843 0.20325997 0.34519541
4.4043598 0.17410815 0.34497869
4.4289007 0.13661221 0.33759141
5.3862147 0.1379168 0.046762466
5.6063647 0.085737593 -0.017375708
5.6034479 0.060261142 -0.014510155
5.6107845 0.0085814726 -0.019152641
5.5522256 -0.049796477 -0.0046464205
5.6064243 -0.10142504 -0.01609838
5.594224 -0.15297742 -0.010285735
5.5663681 -0.17752092 -0.0027136803
5.5861454 -0.23647182 -0.011582255
5.5663347 -0.27356577 -0.0011081696
5.1542406 -0.29561591 0.12234259
5.1225624 -0.32743469 0.13629532
5.1145782 -0.37905914 0.13824058
5.1042314 -0.42279348 0.14579177
5.6228514 -0.51397341 -0.010151982
5.2938681 -0.53217542 0.090850234
5.3478389 -0.58559513 0.083257198
5.2635627 -0.60932225 0.10804605
5.310205 -0.67023176 0.096720219
5.6368966 -0.75007433 0.0028529167
5.7175508 -0.82076281 -0.013154268
3.1839056 -0.41181323 0.73152846
3.1668639 -0.42242682 0.73798275
3.1406393 -0.44368294 0.74963766
3.1327324 -0.46794111 0.75447094
3.1253242 -0.48878655 0.75941288
3.1042237 -0.50011343 0.76914293
3.1258373 -0.53018647 0.76529157
3.1182108 -0.55013734 0.77096868
3.1134896 -0.57335621 0.77558112
3.0907941 -0.5883472 0.78560925
3.0852551 -0.61505741 0.79271525
3.0928512 -0.63278598 0.79211587
3.1276064 -0.67121679 0.78784692
3.1485705 -0.69832826 0.78465575
3.1322222 -0.71576053 0.7931298
3.1418152 -0.74101186 0.7953335
3.1395111 -0.76416725 0.80014277
